ncols        211
nrows        24
xllcorner    254283.272391
yllcorner    403467.356521
cellsize     10.000000000000
NODATA_value  -9999
77.73919677734375 77.934898376464844 78.179000854492187 78.254402160644531 78.25140380859375 78.143402099609375 78.121498107910156 78.098098754882813 78.085403442382813 76.180496215820313 74.425796508789062 74.803596496582031 74.53399658203125 72.8114013671875 71.366401672363281 71.652198791503906 72.023399353027344 72.275001525878906 72.516799926757813 73.129096984863281 73.944099426269531 74.890602111816406 75.508003234863281 76.459999084472656 77.865997314453125 79.162696838378906 80.319801330566406 81.175399780273438 81.743896484375 81.549896240234375 81.0364990234375 80.362701416015625 79.788803100585937 79.301902770996094 78.849899291992187 78.337898254394531 77.769699096679688 77.254898071289063 76.945396423339844 76.736000061035156 77.008003234863281 77.785003662109375 78.182098388671875 78.914398193359375 79.603401184082031 80.166999816894531 81.710502624511719 82.5177001953125 83.26519775390625 83.153099060058594 81.763099670410156 80.236297607421875 78.641502380371094 76.77850341796875 75.840499877929688 74.666900634765625 73.682502746582031 73.31719970703125 73.266700744628906 73.753097534179687 75.052902221679688 76.971099853515625 78.554298400878906 80.45050048828125 81.282501220703125 81.160301208496094 80.606597900390625 78.685302734375 75.819297790527344 73.394203186035156 72.205902099609375 72.209701538085938 72.091400146484375 71.233901977539063 70.358901977539063 69.2510986328125 68.579696655273437 68.164100646972656 67.517303466796875 65.929901123046875 64.722999572753906 64.392997741699219 63.015899658203125 62.436100006103516 62.477100372314453 62.441898345947266 62.444599151611328 62.437400817871094 62.524898529052734 61.575099945068359 60.320499420166016 60.156700134277344 59.221298217773438 59.221099853515625 59.247100830078125 59.2333984375 59.1427001953125 59.119998931884766 59.077201843261719 59.040699005126953 59.033599853515625 58.951000213623047 58.872299194335938 58.835899353027344 58.720901489257813 58.70989990234375 58.704601287841797 58.715999603271484 58.666099548339844 58.580001831054688 58.576499938964844 58.573699951171875 58.5343017578125 58.638401031494141 58.681400299072266 58.649799346923828 58.715599060058594 58.731300354003906 58.769199371337891 58.978401184082031 58.880599975585938 59.168598175048828 59.166999816894531 59.226398468017578 59.135799407958984 59.167900085449219 59.112400054931641 59.142501831054687 59.133800506591797 59.131999969482422 59.152198791503906 59.004100799560547 58.767799377441406 59.088100433349609 59.201301574707031 59.191699981689453 59.168701171875 59.165298461914062 59.123699188232422 59.079799652099609 59.023601531982422 59.013801574707031 59.039100646972656 59.045398712158203 59.062999725341797 59.088798522949219 59.11920166015625 59.143699645996094 59.180301666259766 59.191898345947266 59.200599670410156 59.225700378417969 59.297000885009766 59.065399169921875 59.142799377441406 59.127300262451172 61.115501403808594 71.425102233886719 59.432498931884766 57.438400268554687 56.595298767089844 55.747798919677734 55.190898895263672 55.222698211669922 55.196800231933594 55.209999084472656 55.208698272705078 55.197200775146484 55.566299438476563 55.768199920654297 56.620098114013672 56.809501647949219 56.798801422119141 57.173099517822266 58.018398284912109 57.780399322509766 57.793998718261719 58.329299926757812 60.737098693847656 71.735099792480469 60.2864990234375 60.352199554443359 60.503398895263672 60.578800201416016 60.185798645019531 59.702098846435547 59.695701599121094 59.720901489257812 59.707099914550781 59.726898193359375 59.771900177001953 59.736198425292969 59.565700531005859 59.638999938964844 59.606700897216797 59.597698211669922 59.718498229980469 59.790500640869141 59.758701324462891 59.644699096679688 59.774898529052734 59.729801177978516 59.522201538085938 59.557098388671875 59.412101745605469 59.621299743652344 59.67919921875 59.675800323486328 59.622398376464844 59.775699615478516 59.784801483154297
77.894500732421875 78.159698486328125 78.233200073242188 78.198097229003906 78.078300476074219 77.924400329589844 78.058403015136719 78.251701354980469 78.2864990234375 77.004402160644531 75.789901733398438 75.282699584960937 74.940498352050781 74.064002990722656 72.173500061035156 72.230903625488281 72.237800598144531 72.25 72.318199157714844 73.058197021484375 73.845703125 74.668197631835938 75.468902587890625 76.340400695800781 77.540496826171875 78.948402404785156 80.103401184082031 81.038002014160156 81.747100830078125 81.930801391601563 81.610099792480469 80.942901611328125 80.448097229003906 79.967796325683594 79.530296325683594 79.092597961425781 78.471603393554688 77.850898742675781 77.524101257324219 77.775299072265625 78.024200439453125 78.599800109863281 79.324302673339844 79.789802551269531 80.229698181152344 80.97039794921875 82.365402221679688 82.84539794921875 83.676597595214844 83.467201232910156 82.082298278808594 80.341796875 78.480499267578125 76.987602233886719 76.209396362304688 75.16510009765625 73.990097045898437 73.553398132324219 73.51300048828125 74.0238037109375 75.506500244140625 77.599502563476563 79.475898742675781 80.899497985839844 81.806602478027344 81.237098693847656 80.580101013183594 78.219703674316406 75.664703369140625 72.888198852539062 71.47540283203125 71.181999206542969 71.049697875976562 70.538803100585938 69.05169677734375 68.859199523925781 68.195198059082031 67.901199340820313 67.57330322265625 66.011100769042969 64.765602111816406 64.75140380859375 63.997100830078125 62.437698364257813 62.421298980712891 62.435798645019531 62.467800140380859 62.440200805664063 62.597301483154297 61.216899871826172 59.789798736572266 59.332599639892578 59.253299713134766 59.244998931884766 59.232498168945313 59.238899230957031 59.192901611328125 59.084400177001953 59.175399780273437 59.058498382568359 58.839298248291016 58.801399230957031 58.807201385498047 58.718601226806641 58.567901611328125 58.713100433349609 58.674999237060547 58.645198822021484 58.647300720214844 58.687599182128906 58.69940185546875 58.675701141357422 58.689701080322266 58.717300415039063 58.718898773193359 58.765800476074219 58.777801513671875 58.776699066162109 58.765399932861328 59.077301025390625 59.143001556396484 59.206401824951172 59.203498840332031 59.209300994873047 59.152599334716797 59.116401672363281 59.106098175048828 59.209701538085938 59.224700927734375 59.110801696777344 59.163600921630859 59.117099761962891 59.01190185546875 59.068099975585938 59.118900299072266 59.082000732421875 59.136798858642578 59.144798278808594 59.155200958251953 59.119998931884766 59.146900177001953 59.179000854492188 59.230201721191406 59.176498413085938 59.083198547363281 59.145801544189453 59.177700042724609 59.1781005859375 59.164699554443359 59.122100830078125 59.113800048828125 59.069698333740234 59.052600860595703 59.006999969482422 59.140098571777344 59.189998626708984 60.7333984375 71.53790283203125 70.064201354980469 57.713699340820313 57.076900482177734 56.089401245117188 55.214599609375 55.218299865722656 55.203899383544922 55.190200805664062 55.19940185546875 55.206600189208984 55.256401062011719 55.730098724365234 56.909999847412109 56.818401336669922 56.866401672363281 57.515899658203125 57.796501159667969 57.921501159667969 58.064498901367188 58.410598754882813 60.6593017578125 72.279998779296875 60.334300994873047 60.390399932861328 60.830101013183594 60.411300659179688 59.825901031494141 59.688400268554687 59.707801818847656 59.743900299072266 59.723598480224609 59.782001495361328 59.8125 59.753200531005859 59.573600769042969 59.624900817871094 59.618198394775391 59.601398468017578 59.709800720214844 59.7864990234375 59.734298706054688 59.660301208496094 59.581298828125 59.551300048828125 59.488800048828125 59.513301849365234 59.577201843261719 59.662899017333984 59.620201110839844 59.629100799560547 59.627700805664063 59.737800598144531 60.085800170898437
77.978103637695313 77.95050048828125 77.980903625488281 78.09429931640625 78.13580322265625 78.155296325683594 78.277900695800781 78.3760986328125 78.387100219726563 77.757797241210938 76.24169921875 75.651397705078125 75.351699829101563 75.11810302734375 74.318397521972656 72.619598388671875 72.189002990722656 72.217300415039063 71.303298950195313 73.91619873046875 75.207298278808594 75.298896789550781 75.498703002929688 76.382102966308594 77.4927978515625 78.734397888183594 79.848396301269531 80.896797180175781 81.60479736328125 82.078399658203125 82.292800903320313 81.685401916503906 81.091903686523438 80.629898071289063 80.204002380371094 79.745903015136719 79.077201843261719 78.476402282714844 78.128402709960938 79.129402160644531 78.994499206542969 79.397201538085938 80.041297912597656 80.528099060058594 81.318801879882813 82.323402404785156 82.862098693847656 83.346900939941406 84.773902893066406 84.818000793457031 83.572402954101563 81.202903747558594 79.197700500488281 77.817298889160156 76.575202941894531 75.479400634765625 74.372100830078125 73.822402954101563 73.901298522949219 74.557701110839844 76.300498962402344 78.192100524902344 79.768501281738281 80.896202087402344 81.015701293945313 80.381500244140625 79.312400817871094 77.525901794433594 75.633796691894531 71.984703063964844 71.130897521972656 71.197601318359375 71.462799072265625 70.223701477050781 68.730300903320312 68.591598510742187 67.939002990722656 67.520401000976563 67.118400573730469 66.703498840332031 65.721397399902344 65.14959716796875 63.576099395751953 62.446498870849609 62.426700592041016 62.427299499511719 62.465499877929687 62.492500305175781 60.826499938964844 60.319999694824219 59.621601104736328 59.271999359130859 59.214099884033203 59.191501617431641 59.271499633789063 59.444698333740234 59.638099670410156 59.463699340820312 59.602699279785156 59.189800262451172 59.106399536132813 58.906700134277344 58.806400299072266 58.763698577880859 58.699901580810547 58.698200225830078 58.657501220703125 58.640800476074219 58.667800903320313 58.706401824951172 58.702701568603516 58.706298828125 58.709999084472656 58.698600769042969 58.686599731445313 58.739898681640625 58.778701782226563 58.770000457763672 58.770000457763672 59.017299652099609 59.128299713134766 59.216400146484375 59.154201507568359 59.161098480224609 59.140800476074219 59.108299255371094 59.134700775146484 59.182399749755859 59.180999755859375 59.097400665283203 59.166900634765625 59.092998504638672 59.260700225830078 59.168098449707031 59.117298126220703 59.134799957275391 59.145099639892578 59.148601531982422 59.113201141357422 59.092201232910156 59.096199035644531 59.177700042724609 59.248298645019531 59.135601043701172 59.082099914550781 59.090999603271484 59.12139892578125 59.125801086425781 59.145599365234375 59.180500030517578 59.225399017333984 59.256801605224609 59.210201263427734 59.240100860595703 59.260299682617187 59.287498474121094 60.512699127197266 61.653400421142578 70.792900085449219 57.929901123046875 57.253799438476563 56.254100799560547 55.292098999023438 55.190399169921875 55.183998107910156 55.194301605224609 55.196998596191406 55.202400207519531 55.245201110839844 55.552799224853516 56.770500183105469 57.150600433349609 56.993698120117187 57.413398742675781 57.699699401855469 57.931198120117188 57.993900299072266 58.641998291015625 60.934799194335938 72.0802001953125 60.469398498535156 60.380100250244141 60.428298950195313 60.494098663330078 60.012500762939453 59.680999755859375 59.691001892089844 59.723899841308594 59.756599426269531 59.765300750732422 59.725200653076172 59.595600128173828 59.582599639892578 59.657600402832031 59.628398895263672 59.586498260498047 59.604698181152344 59.749599456787109 59.771198272705078 59.683700561523438 59.630500793457031 59.514198303222656 59.499698638916016 59.506099700927734 59.624900817871094 59.616401672363281 59.608600616455078 59.613300323486328 59.61090087890625 59.717899322509766 59.921199798583984
77.836997985839844 77.93389892578125 77.93060302734375 77.921096801757813 78.132301330566406 78.287803649902344 78.379203796386719 78.451400756835938 78.438400268554687 78.355796813964844 78.377799987792969 76.407997131347656 75.742996215820313 75.507698059082031 75.357696533203125 73.882598876953125 72.252197265625 72.268203735351562 72.841903686523438 76.0635986328125 76.058601379394531 75.29119873046875 75.337600708007813 76.439697265625 77.586799621582031 78.681503295898437 79.7301025390625 80.792198181152344 81.694999694824219 82.216796875 82.441902160644531 82.182998657226562 81.778800964355469 81.355300903320312 80.886703491210938 80.249000549316406 79.613197326660156 79.135101318359375 78.674201965332031 80.569900512695313 80.022903442382813 80.094497680664063 80.891502380371094 81.65899658203125 82.349998474121094 82.933403015136719 83.278099060058594 84.046798706054688 85.0426025390625 85.551597595214844 84.219596862792969 82.05670166015625 79.561897277832031 78.123802185058594 76.921798706054687 76.098503112792969 74.961402893066406 74.147003173828125 74.532997131347656 75.49169921875 77.322601318359375 78.719100952148438 80.034896850585938 80.285697937011719 79.646797180175781 78.464500427246094 76.690902709960937 75.284500122070312 73.509696960449219 71.270896911621094 69.973800659179688 69.88909912109375 69.568801879882813 68.960403442382812 67.726699829101563 66.802398681640625 66.676399230957031 66.85479736328125 66.447502136230469 66.43890380859375 66.41290283203125 66.040397644042969 63.807098388671875 62.657299041748047 62.434700012207031 62.429298400878906 61.824298858642578 61.096900939941406 60.375999450683594 60.176300048828125 59.313301086425781 59.218299865722656 59.201900482177734 59.238800048828125 59.339099884033203 59.419300079345703 59.456100463867188 59.723800659179688 59.835601806640625 59.124698638916016 59.120700836181641 58.897800445556641 58.838298797607422 58.817401885986328 58.753101348876953 58.711399078369141 58.677101135253906 58.634998321533203 58.642601013183594 58.688899993896484 58.682899475097656 58.698299407958984 58.717300415039063 58.707500457763672 58.710498809814453 58.735698699951172 58.756698608398438 58.755401611328125 58.765300750732422 59.156501770019531 59.034698486328125 59.128101348876953 59.065299987792969 59.144599914550781 59.080600738525391 59.109199523925781 59.202400207519531 59.298099517822266 59.161598205566406 59.105098724365234 59.123699188232422 59.1260986328125 59.332099914550781 59.248500823974609 59.199798583984375 59.227199554443359 59.201000213623047 59.236801147460938 59.256301879882813 59.262298583984375 59.224601745605469 59.227500915527344 59.156898498535156 59.070400238037109 59.076099395751953 59.092899322509766 59.135398864746094 59.154098510742188 59.171199798583984 59.160499572753906 59.195701599121094 59.228900909423828 59.2958984375 59.370601654052734 59.405498504638672 59.541698455810547 60.361598968505859 61.531700134277344 71.266700744628906 58.061100006103516 57.413700103759766 56.676799774169922 55.4208984375 55.217201232910156 55.186798095703125 55.186798095703125 55.183998107910156 55.2239990234375 55.235298156738281 55.6697998046875 56.823699951171875 56.947601318359375 57.024299621582031 57.290599822998047 57.527999877929688 57.820999145507812 58.033298492431641 59.115699768066406 61.624698638916016 72.624099731445313 60.314800262451172 60.481800079345703 60.826198577880859 61.004901885986328 60.225399017333984 59.664699554443359 59.660301208496094 59.730598449707031 59.713199615478516 59.800899505615234 59.713798522949219 59.494300842285156 59.568099975585938 59.685001373291016 59.649799346923828 59.569301605224609 59.638900756835937 59.722000122070313 59.735000610351563 59.685199737548828 59.701801300048828 59.459098815917969 59.512599945068359 59.515098571777344 59.599601745605469 59.629299163818359 59.587299346923828 59.644100189208984 59.597999572753906 59.658599853515625 59.704299926757813
77.708198547363281 77.630203247070313 77.709197998046875 77.881500244140625 78.128402709960938 78.346702575683594 78.346702575683594 78.282302856445313 78.312103271484375 78.487396240234375 78.715400695800781 77.534698486328125 76.177696228027344 75.904098510742187 75.799400329589844 75.535598754882812 74.413597106933594 74.411300659179687 75.961402893066406 76.517997741699219 76.418701171875 76.1875 75.310501098632813 76.313301086425781 77.447998046875 78.540496826171875 79.657600402832031 80.722198486328125 81.724800109863281 82.347801208496094 82.670600891113281 82.743896484375 82.406898498535156 82.07330322265625 81.625099182128906 80.673698425292969 80.018600463867188 80.051803588867188 80.540298461914062 81.106903076171875 80.877799987792969 80.994499206542969 81.434501647949219 82.604301452636719 83.201301574707031 83.573799133300781 84.10009765625 84.9656982421875 85.727401733398438 85.831100463867188 85.218696594238281 83.555801391601562 82.632797241210938 80.303802490234375 78.545196533203125 77.365997314453125 76.947303771972656 75.999099731445312 75.4656982421875 76.667503356933594 78.154502868652344 79.422698974609375 80.341697692871094 79.460098266601563 77.922096252441406 76.589897155761719 75.276298522949219 73.901100158691406 72.526802062988281 71.092597961425781 70.182098388671875 69.839401245117187 69.505500793457031 68.190200805664062 66.9927978515625 66.680000305175781 66.685798645019531 66.593902587890625 66.443397521972656 66.434600830078125 66.404098510742187 66.066398620605469 65.292503356933594 62.895198822021484 62.412700653076172 62.426399230957031 61.812999725341797 60.830699920654297 60.527099609375 60.338001251220703 59.279998779296875 59.269500732421875 59.241500854492187 59.236698150634766 59.4364013671875 59.506000518798828 59.583198547363281 59.777400970458984 59.786800384521484 59.248401641845703 59.086200714111328 59.007099151611328 58.858100891113281 58.825000762939453 58.756401062011719 58.716201782226563 58.673599243164062 58.644298553466797 58.630199432373047 58.644100189208984 58.698699951171875 58.689701080322266 58.680698394775391 58.696601867675781 58.692699432373047 58.743900299072266 58.779998779296875 58.764999389648438 58.756500244140625 59.162899017333984 59.037200927734375 59.083198547363281 59.088100433349609 59.065700531005859 59.122600555419922 59.165401458740234 59.111801147460937 59.277000427246094 59.365699768066406 59.115898132324219 59.126899719238281 59.123401641845703 59.3927001953125 59.361000061035156 59.419200897216797 59.109401702880859 59.151798248291016 59.103801727294922 59.100101470947266 59.11199951171875 59.158599853515625 59.152301788330078 59.141498565673828 59.129798889160156 59.145500183105469 59.426601409912109 59.484401702880859 59.518501281738281 59.512901306152344 59.538799285888672 59.509700775146484 59.518299102783203 59.472698211669922 59.437301635742187 59.528099060058594 59.462299346923828 59.933799743652344 60.914299011230469 71.681396484375 57.917900085449219 57.462398529052734 56.590000152587891 55.600799560546875 55.213001251220703 55.186100006103516 55.172798156738281 55.198398590087891 55.144699096679687 55.263801574707031 55.693199157714844 56.668998718261719 56.667098999023438 57.200000762939453 57.116298675537109 57.563201904296875 57.847301483154297 58.013500213623047 59.020698547363281 61.278701782226563 73.158302307128906 61.125499725341797 60.927200317382813 61.11669921875 61.045501708984375 60.261199951171875 59.652301788330078 59.680198669433594 59.698699951171875 59.550098419189453 59.729499816894531 59.766998291015625 59.526298522949219 59.597301483154297 59.694900512695313 59.656600952148438 59.624099731445313 59.644199371337891 59.658100128173828 59.625499725341797 59.698299407958984 59.67449951171875 59.519401550292969 59.525501251220703 59.511699676513672 59.559600830078125 59.630199432373047 59.636398315429688 59.649700164794922 59.660598754882813 59.66400146484375 59.784999847412109
77.484100341796875 77.558998107910156 77.931098937988281 78.000999450683594 78.253898620605469 78.349800109863281 78.235298156738281 78.256797790527344 78.516899108886719 78.752601623535156 78.849800109863281 78.610801696777344 77.6260986328125 76.297798156738281 76.173797607421875 75.994102478027344 76.796600341796875 76.995201110839844 76.88189697265625 76.797996520996094 76.690200805664062 76.242401123046875 75.253097534179688 76.195297241210938 77.025299072265625 78.145797729492187 79.373298645019531 80.557502746582031 81.6343994140625 82.367202758789063 82.785697937011719 82.952796936035156 83.14019775390625 82.607696533203125 82.406700134277344 81.337501525878906 80.484001159667969 80.406501770019531 80.770103454589844 81.791397094726563 82.525901794433594 82.168601989746094 82.170097351074219 83.190696716308594 83.775703430175781 84.29229736328125 84.955802917480469 85.774497985839844 85.334701538085938 84.75140380859375 84.358100891113281 83.690200805664063 82.409797668457031 80.515998840332031 78.603996276855469 77.766700744628906 77.444099426269531 77.1531982421875 77.552497863769531 78.069602966308594 78.956298828125 80.065399169921875 80.160003662109375 78.86090087890625 77.299896240234375 75.944999694824219 74.608596801757813 73.31610107421875 72.32550048828125 71.146598815917969 70.228500366210937 69.876296997070312 69.196601867675781 67.984596252441406 66.903602600097656 66.894500732421875 66.683097839355469 66.519302368164062 66.435302734375 66.439300537109375 66.328697204589844 66.095001220703125 65.841598510742187 63.268199920654297 62.456199645996094 62.384498596191406 61.848800659179688 60.903499603271484 60.559700012207031 60.118198394775391 59.280200958251953 59.258598327636719 59.229999542236328 59.237899780273438 59.4989013671875 59.453800201416016 59.599998474121094 59.839401245117188 59.7760009765625 59.385501861572266 59.090400695800781 59.01409912109375 58.874900817871094 58.840599060058594 58.70159912109375 58.713100433349609 58.695499420166016 58.669898986816406 58.644199371337891 58.649898529052734 58.689800262451172 58.702301025390625 58.698699951171875 58.695499420166016 58.718498229980469 58.740001678466797 58.767200469970703 58.758701324462891 58.760601043701172 59.074600219726562 59.004299163818359 59.036201477050781 59.115501403808594 59.074298858642578 59.090198516845703 59.140899658203125 59.147300720214844 59.308300018310547 59.343101501464844 59.190200805664062 59.158500671386719 59.199199676513672 59.375301361083984 59.511699676513672 59.365501403808594 59.152198791503906 59.12030029296875 59.121700286865234 59.112201690673828 59.12860107421875 59.131301879882813 59.147201538085938 59.166000366210938 59.15570068359375 59.3114013671875 59.493198394775391 59.537899017333984 59.4552001953125 59.375999450683594 59.179298400878906 59.208198547363281 59.288898468017578 59.316799163818359 59.339698791503906 59.366001129150391 59.394901275634766 59.61920166015625 60.429500579833984 72.14959716796875 58.246498107910156 57.536098480224609 56.873199462890625 56.119800567626953 55.207901000976563 55.199001312255859 55.195098876953125 55.20989990234375 55.207500457763672 55.227401733398437 55.901401519775391 56.479900360107422 56.958499908447266 56.951999664306641 57.290401458740234 57.275398254394531 57.768398284912109 57.704299926757813 59.259201049804688 60.737300872802734 73.103797912597656 61.774700164794922 60.975200653076172 61.049999237060547 61.100299835205078 60.366298675537109 59.671901702880859 59.661899566650391 59.703098297119141 59.618499755859375 59.658901214599609 59.717201232910156 59.584999084472656 59.62139892578125 59.697299957275391 59.637500762939453 59.626701354980469 59.6416015625 59.646400451660156 59.59429931640625 59.675498962402344 59.634998321533203 59.517299652099609 59.540901184082031 59.476299285888672 59.485599517822266 59.646900177001953 59.616001129150391 59.5906982421875 59.631900787353516 59.656501770019531 59.7510986328125
77.36419677734375 77.483596801757813 77.680496215820312 77.872596740722656 78.125 78.278602600097656 78.123802185058594 78.414299011230469 78.692802429199219 78.841796875 78.601699829101563 78.410598754882813 78.439102172851563 77.524398803710937 76.539199829101563 76.6011962890625 77.378402709960937 77.264198303222656 77.154701232910156 77.021400451660156 76.927398681640625 76.748199462890625 76.211601257324219 76.086502075195313 76.841903686523438 77.785896301269531 79.14959716796875 80.417900085449219 81.416099548339844 82.144401550292969 82.651901245117188 83.01080322265625 83.405998229980469 83.303298950195313 83.184501647949219 82.638099670410156 81.76409912109375 81.389297485351563 81.383201599121094 82.24420166015625 82.974601745605469 83.216903686523438 83.374801635742187 83.678802490234375 84.162498474121094 84.791000366210937 85.444099426269531 85.526603698730469 84.391502380371094 83.595199584960937 83.010498046875 82.278297424316406 81.006103515625 79.241600036621094 77.832099914550781 77.885597229003906 77.616798400878906 77.020797729492188 78.046501159667969 78.718101501464844 78.764396667480469 79.487297058105469 79.727699279785156 78.556297302246094 77.04229736328125 75.688796997070313 73.983901977539062 73.027496337890625 71.838897705078125 71.022003173828125 70.009101867675781 69.524696350097656 68.793296813964844 67.91400146484375 67.886299133300781 67.497001647949219 67.788101196289063 66.910598754882813 66.46600341796875 66.645797729492188 66.438102722167969 66.248001098632813 65.630599975585938 64.276199340820313 63.032798767089844 61.965000152587891 61.562000274658203 61.036998748779297 59.790500640869141 59.304500579833984 59.258701324462891 59.231700897216797 59.210700988769531 59.245601654052734 59.338901519775391 59.463901519775391 59.439998626708984 59.824501037597656 59.937301635742187 59.430900573730469 59.104198455810547 58.979801177978516 58.832901000976563 58.809200286865234 58.760398864746094 58.727100372314453 58.711399078369141 58.647998809814453 58.6427001953125 58.676101684570313 58.709999084472656 58.705299377441406 58.706798553466797 58.715999603271484 58.731201171875 58.722900390625 58.757099151611328 58.759998321533203 58.789100646972656 59.024799346923828 58.960098266601563 59.020698547363281 59.051998138427734 59.136501312255859 59.065101623535156 59.158599853515625 59.13079833984375 59.297500610351563 59.270000457763672 59.156898498535156 59.149600982666016 59.247898101806641 59.338699340820312 59.481399536132813 59.383800506591797 59.126701354980469 59.204498291015625 59.173900604248047 59.149299621582031 59.156700134277344 59.198501586914063 59.233699798583984 59.259601593017578 59.299301147460937 59.359199523925781 59.177700042724609 59.255100250244141 59.29010009765625 59.243198394775391 59.133899688720703 59.188400268554687 59.214900970458984 59.229301452636719 59.243999481201172 59.248401641845703 59.255001068115234 59.532901763916016 61.022800445556641 71.966598510742187 58.908901214599609 57.637199401855469 57.466499328613281 56.4010009765625 55.334201812744141 55.203300476074219 55.205699920654297 55.220100402832031 55.214298248291016 55.166400909423828 55.94940185546875 56.497898101806641 56.925098419189453 57.203899383544922 57.240898132324219 56.850101470947266 57.938800811767578 57.830398559570313 58.720001220703125 61.446800231933594 72.405799865722656 61.37030029296875 60.807098388671875 61.097000122070313 60.968498229980469 60.151401519775391 59.729301452636719 59.683700561523438 59.743900299072266 59.697700500488281 59.735298156738281 59.754600524902344 59.628501892089844 59.672401428222656 59.651500701904297 59.633800506591797 59.569599151611328 59.625900268554688 59.636398315429688 59.611400604248047 59.673801422119141 59.603099822998047 59.565799713134766 59.552898406982422 59.469001770019531 59.519401550292969 59.645198822021484 59.614398956298828 59.614601135253906 59.590999603271484 59.623798370361328 59.710700988769531
75.697097778320313 77.005500793457031 77.500999450683594 77.94830322265625 78.184402465820313 78.207199096679688 78.220001220703125 78.508201599121094 78.808403015136719 78.766098022460938 78.415298461914063 78.728996276855469 78.880500793457031 78.592903137207031 77.513900756835938 77.929603576660156 77.693901062011719 77.419898986816406 77.303497314453125 77.218002319335938 77.143798828125 77.081199645996094 76.47509765625 75.870201110839844 76.547203063964844 77.502403259277344 78.805900573730469 80.076400756835938 81.044700622558594 81.866500854492188 82.359596252441406 82.974998474121094 83.43499755859375 83.943496704101563 83.755897521972656 83.481796264648437 82.915000915527344 82.027900695800781 82.188400268554688 82.753303527832031 83.505500793457031 83.82879638671875 84.170700073242188 84.489601135253906 84.948699951171875 85.2886962890625 84.9375 83.989402770996094 83.121597290039062 82.456001281738281 81.986900329589844 81.154899597167969 79.899497985839844 78.459396362304688 78.1968994140625 77.709098815917969 77.555702209472656 78.499099731445313 79.583999633789063 80.440101623535156 80.849700927734375 81.683700561523438 80.851997375488281 79.35040283203125 77.728897094726563 76.360000610351563 75.227096557617188 74.19439697265625 73.083999633789063 72.028297424316406 70.631301879882813 69.430801391601563 67.958297729492187 67.946197509765625 67.935997009277344 67.889999389648437 67.774497985839844 67.577003479003906 67.814796447753906 67.828399658203125 67.567001342773438 65.618797302246094 65.349700927734375 64.004096984863281 62.625900268554687 61.502201080322266 61.338100433349609 60.431098937988281 59.360801696777344 59.249298095703125 59.244300842285156 59.248100280761719 59.223201751708984 59.211399078369141 59.335399627685547 59.491100311279297 59.598400115966797 59.847000122070313 59.909198760986328 59.361000061035156 59.110599517822266 59.064399719238281 58.885299682617187 58.846599578857422 58.776699066162109 58.738201141357422 58.6968994140625 58.659500122070313 58.678398132324219 58.674400329589844 58.709400177001953 58.70989990234375 58.71820068359375 58.695499420166016 58.706901550292969 58.721401214599609 58.754398345947266 58.790500640869141 58.788398742675781 58.932098388671875 59.078899383544922 58.990001678466797 59.043701171875 59.158298492431641 59.155101776123047 59.139598846435547 59.161998748779297 59.470901489257813 59.209098815917969 59.306800842285156 59.224498748779297 59.328098297119141 59.410598754882813 59.350700378417969 59.398399353027344 59.125701904296875 59.121200561523438 59.079601287841797 59.164798736572266 59.267299652099609 59.308498382568359 59.326499938964844 59.324100494384766 59.356201171875 59.301300048828125 59.223098754882812 59.198898315429688 59.259700775146484 59.271900177001953 59.175399780273437 59.153400421142578 59.208499908447266 59.217300415039063 59.220401763916016 59.229198455810547 59.229598999023438 59.311199188232422 59.254501342773438 71.652297973632813 59.490501403808594 57.8760986328125 57.5281982421875 56.65570068359375 55.308601379394531 55.193199157714844 55.108798980712891 55.252799987792969 55.221000671386719 55.23590087890625 55.871700286865234 56.263900756835938 57.034400939941406 57.308601379394531 57.251701354980469 56.618698120117187 57.488800048828125 58.021099090576172 57.928199768066406 60.330699920654297 71.694297790527344 61.143501281738281 60.105098724365234 60.552200317382813 60.696998596191406 60.445598602294922 59.745399475097656 59.7041015625 59.663600921630859 59.728000640869141 59.771900177001953 59.739398956298828 59.685798645019531 59.618198394775391 59.639701843261719 59.624900817871094 59.553298950195313 59.682399749755859 59.644599914550781 59.6708984375 59.650001525878906 59.62860107421875 59.573001861572266 59.564998626708984 59.561599731445313 59.638401031494141 59.630298614501953 59.573898315429688 59.59320068359375 59.6416015625 59.673000335693359 59.674701690673828
74.373703002929688 76.507499694824219 77.371200561523438 77.839698791503906 78.150802612304688 78.108497619628906 78.103996276855469 78.429496765136719 78.772903442382813 78.695999145507813 78.425697326660156 78.741600036621094 79.182899475097656 78.928001403808594 77.958702087402344 78.223297119140625 77.863601684570312 77.645896911621094 77.429397583007812 77.340499877929688 77.315696716308594 77.207099914550781 77.120498657226562 76.639801025390625 76.397102355957031 77.301002502441406 78.3363037109375 79.468299865722656 80.609199523925781 81.39849853515625 82.016799926757813 82.623703002929688 83.280899047851563 83.638496398925781 84.10040283203125 83.96240234375 83.839500427246094 83.278900146484375 83.1177978515625 83.499198913574219 84.085502624511719 84.646697998046875 85.222297668457031 85.434700012207031 85.374099731445313 85.05670166015625 84.307296752929687 83.097602844238281 82.339401245117187 81.871101379394531 81.487098693847656 80.921600341796875 79.811203002929687 79.010498046875 78.465202331542969 78.017898559570313 79.224502563476562 80.20770263671875 81.312797546386719 82.189796447753906 83.033203125 82.685401916503906 81.915702819824219 80.281303405761719 79.295196533203125 77.925697326660156 77.396003723144531 75.496696472167969 74.158203125 72.526298522949219 71.015800476074219 69.229202270507813 68.005897521972656 67.981300354003906 67.897499084472656 67.888801574707031 67.843597412109375 68.877098083496094 69.12359619140625 68.518997192382813 68.217201232910156 66.620101928710938 65.289100646972656 64.182701110839844 61.854400634765625 61.494300842285156 61.416698455810547 60.197200775146484 59.385601043701172 59.240001678466797 59.252101898193359 59.255001068115234 59.214099884033203 59.220401763916016 59.253101348876953 59.528800964355469 59.47760009765625 59.823101043701172 59.922698974609375 59.522300720214844 59.109298706054688 59.0718994140625 58.879001617431641 58.833599090576172 58.863498687744141 58.729999542236328 58.714801788330078 58.699600219726563 58.773399353027344 58.684299468994141 58.750999450683594 59.000099182128906 58.771900177001953 58.837200164794922 58.803600311279297 59.055301666259766 58.991798400878906 58.969898223876953 59.254001617431641 58.982101440429687 59.128898620605469 59.072700500488281 59.262298583984375 59.100101470947266 59.089500427246094 59.302799224853516 59.248298645019531 59.347698211669922 59.296100616455078 59.296398162841797 59.342899322509766 59.459999084472656 59.388999938964844 59.335601806640625 59.133899688720703 59.099899291992188 59.285800933837891 59.253700256347656 59.252601623535156 59.300399780273438 59.315601348876953 59.294998168945312 59.308498382568359 59.330101013183594 59.324199676513672 59.105499267578125 59.187698364257813 59.247001647949219 59.310398101806641 59.201698303222656 59.186698913574219 59.226398468017578 59.243801116943359 59.233501434326172 59.246898651123047 59.244499206542969 59.255599975585938 59.230201721191406 71.330902099609375 60.096401214599609 58.184898376464844 57.631198883056641 56.896400451660156 55.339000701904297 55.253398895263672 55.223701477050781 55.208499908447266 55.229598999023438 55.22650146484375 55.431098937988281 56.082199096679688 56.767501831054687 57.431400299072266 57.142101287841797 56.718700408935547 57.602001190185547 57.587699890136719 57.821701049804688 59.2322998046875 71.139297485351563 71.3927001953125 59.819698333740234 59.326000213623047 58.699798583984375 58.435901641845703 58.938701629638672 59.520000457763672 59.879600524902344 59.527698516845703 59.241500854492187 59.10369873046875 59.092800140380859 59.711898803710938 59.626998901367188 59.565399169921875 59.523200988769531 59.45989990234375 59.427600860595703 59.533500671386719 59.664798736572266 59.589199066162109 59.513301849365234 59.558300018310547 59.505599975585938 59.650699615478516 59.607601165771484 59.617099761962891 59.608898162841797 59.657901763916016 59.611000061035156 59.676601409912109
74.225799560546875 76.074302673339844 76.775497436523438 77.708602905273438 78.039199829101563 78.004402160644531 78.02130126953125 78.595001220703125 78.69940185546875 78.592399597167969 78.334098815917969 79.616302490234375 80.007598876953125 79.662803649902344 79.020301818847656 78.520301818847656 78.148200988769531 77.833999633789063 77.573898315429687 77.440498352050781 77.369796752929687 77.312896728515625 77.202102661132813 77.156501770019531 76.883499145507813 76.92340087890625 77.74169921875 78.835403442382812 79.826499938964844 80.8489990234375 81.483901977539063 82.208396911621094 82.812896728515625 83.002403259277344 83.416099548339844 84.001899719238281 84.068801879882813 84.241897583007812 83.772499084472656 84.121299743652344 84.560203552246094 85.394798278808594 85.81610107421875 85.543601989746094 84.954498291015625 84.310997009277344 83.327102661132813 82.61920166015625 82.114303588867188 81.837898254394531 81.767501831054687 81.304100036621094 80.497901916503906 80.023002624511719 79.273902893066406 79.418899536132813 80.918800354003906 82.198997497558594 82.829399108886719 82.989097595214844 82.870002746582031 82.823997497558594 81.543701171875 80.811599731445312 79.738197326660156 79.011703491210938 77.051002502441406 75.353500366210938 73.82440185546875 72.352401733398438 70.765998840332031 69.741996765136719 68.965202331542969 68.120399475097656 68.312797546386719 68.258102416992187 69.412696838378906 69.709800720214844 69.428497314453125 69.163497924804688 68.485198974609375 66.990402221679688 65.325798034667969 64.360198974609375 62.981498718261719 61.382598876953125 61.144100189208984 60.813499450683594 59.270301818847656 59.258899688720703 59.258598327636719 59.262100219726562 59.208698272705078 59.227298736572266 59.340301513671875 59.461200714111328 59.608600616455078 59.703201293945313 59.845199584960938 59.279201507568359 59.287601470947266 59.085899353027344 59.134799957275391 58.9541015625 58.937400817871094 58.834701538085938 59.036098480224609 59.384498596191406 58.812099456787109 59.097698211669922 59.038101196289063 59.104499816894531 58.947299957275391 59.070899963378906 59.171100616455078 59.019599914550781 59.107601165771484 59.061798095703125 59.068599700927734 59.047100067138672 59.186199188232422 59.046699523925781 59.124401092529297 59.016300201416016 59.093898773193359 59.268798828125 59.359798431396484 59.253299713134766 59.337100982666016 59.266899108886719 59.456600189208984 59.472698211669922 59.467800140380859 59.315799713134766 58.930599212646484 59.040699005126953 59.263900756835937 59.250198364257813 59.305099487304687 59.326400756835938 59.282901763916016 59.20989990234375 59.229598999023438 59.308700561523438 59.312301635742188 59.123100280761719 59.199501037597656 59.256801605224609 59.302101135253906 59.242698669433594 59.194599151611328 59.248401641845703 59.285400390625 59.274799346923828 59.265998840332031 59.246799468994141 59.281101226806641 59.150299072265625 70.998802185058594 70.556396484375 58.711898803710938 57.730800628662109 57.184700012207031 56.179599761962891 55.208301544189453 55.194999694824219 55.227001190185547 55.207401275634766 55.231098175048828 55.230701446533203 55.747798919677734 56.626499176025391 57.395500183105469 57.254100799560547 56.397499084472656 56.974098205566406 57.55670166015625 58.29010009765625 58.740699768066406 61.411899566650391 71.723602294921875 59.6427001953125 59.672599792480469 59.778099060058594 59.965499877929688 60.403301239013672 60.747001647949219 59.445701599121094 59.141498565673828 59.269100189208984 59.400001525878906 59.708198547363281 60.414699554443359 60.935001373291016 59.108798980712891 58.97650146484375 58.992900848388672 59.247798919677734 59.705398559570313 59.774700164794922 59.906700134277344 59.740699768066406 58.786098480224609 59.056400299072266 59.365699768066406 59.626701354980469 59.643901824951172 59.538898468017578 59.616298675537109 59.735000610351563 59.432300567626953
73.93060302734375 75.210800170898437 76.175300598144531 77.144996643066406 77.897697448730469 77.854698181152344 78.2113037109375 78.420501708984375 78.663803100585938 78.498100280761719 79.684303283691406 80.4552001953125 80.850601196289063 80.439300537109375 79.451797485351563 79.111602783203125 78.424102783203125 78.008499145507813 77.679000854492187 77.508499145507813 77.439102172851563 77.374099731445312 77.304496765136719 77.305801391601562 76.87249755859375 76.942001342773438 77.030998229980469 78.018302917480469 79.120101928710938 80.098701477050781 80.699699401855469 81.581100463867188 82.162300109863281 82.348701477050781 82.583000183105469 83.082801818847656 83.880302429199219 83.846298217773437 83.565696716308594 84.0364990234375 84.627403259277344 85.158798217773438 85.454002380371094 84.819099426269531 84.224998474121094 83.663597106933594 83.16619873046875 82.761299133300781 82.652801513671875 82.776100158691406 82.79949951171875 82.17120361328125 82.394302368164063 82.123100280761719 80.875198364257813 81.269302368164062 82.347297668457031 82.366798400878906 82.464599609375 82.21929931640625 81.644096374511719 81.622596740722656 80.756401062011719 80.030899047851563 79.701499938964844 78.260696411132813 76.976898193359375 74.878799438476562 73.549301147460938 72.09210205078125 70.774101257324219 69.877601623535156 69.775299072265625 69.186996459960937 69.591598510742188 70.072601318359375 70.55889892578125 70.60040283203125 70.249198913574219 69.8927001953125 68.875801086425781 67.047500610351563 65.326400756835938 64.621101379394531 62.922199249267578 61.440799713134766 61.237499237060547 60.069301605224609 59.355800628662109 59.282699584960937 59.298198699951172 59.521999359130859 59.225601196289063 59.332401275634766 59.341598510742188 59.454898834228516 59.569801330566406 59.562000274658203 59.608501434326172 59.224800109863281 59.218700408935547 59.123600006103516 59.142101287841797 59.076499938964844 59.004398345947266 59.113700866699219 58.903400421142578 58.918201446533203 58.890598297119141 59.012100219726563 59.109001159667969 59.055999755859375 59.042999267578125 59.029399871826172 59.014400482177734 59.038299560546875 59.089298248291016 59.056400299072266 59.032600402832031 59.106201171875 59.0968017578125 59.1239013671875 59.094100952148438 59.042198181152344 59.076301574707031 59.296600341796875 59.289299011230469 59.321098327636719 59.270301818847656 59.321300506591797 59.387298583984375 59.511199951171875 59.479301452636719 59.389198303222656 58.559398651123047 58.959098815917969 59.320701599121094 59.37139892578125 59.388599395751953 59.385200500488281 59.348098754882813 59.331100463867188 59.335300445556641 59.415500640869141 59.360298156738281 59.174598693847656 59.233100891113281 59.2760009765625 59.315299987792969 59.247501373291016 59.197601318359375 59.252201080322266 59.267398834228516 59.311000823974609 59.337299346923828 59.280399322509766 59.222999572753906 59.1708984375 60.784099578857422 71.053497314453125 59.088001251220703 57.81719970703125 57.648399353027344 56.759700775146484 55.335800170898438 55.236198425292969 55.131000518798828 55.193099975585938 55.241401672363281 55.230899810791016 55.527599334716797 56.175300598144531 57.1239013671875 57.306499481201172 57.164299011230469 57.461399078369141 57.860198974609375 58.160900115966797 58.774398803710937 60.650100708007813 71.930099487304688 59.921699523925781 59.941200256347656 59.940399169921875 60.038600921630859 59.884201049804688 59.831001281738281 59.699901580810547 59.705600738525391 59.766201019287109 59.646701812744141 59.650001525878906 59.625099182128906 59.515499114990234 59.655200958251953 59.586799621582031 59.524101257324219 59.712299346923828 59.769298553466797 59.917098999023438 60.515701293945312 60.463699340820313 60.726398468017578 60.749900817871094 60.501998901367188 59.929401397705078 59.7958984375 60.134998321533203 60.539199829101563 60.027400970458984 60.849601745605469
73.905403137207031 74.61669921875 75.6636962890625 76.602302551269531 77.333099365234375 77.717903137207031 77.941703796386719 78.261497497558594 78.454399108886719 79.139801025390625 79.913902282714844 80.965797424316406 81.336402893066406 80.990898132324219 80.194297790527344 80.030601501464844 79.391799926757813 78.327003479003906 77.927299499511719 77.654701232910156 77.558403015136719 77.456901550292969 77.396202087402344 77.217697143554687 76.838203430175781 77.056503295898438 77.233901977539062 77.507797241210937 78.493698120117187 79.367599487304688 80.243202209472656 80.831497192382813 81.390800476074219 81.731201171875 81.816001892089844 82.044403076171875 82.919700622558594 82.536300659179688 83.030601501464844 83.517601013183594 84.347900390625 84.761001586914063 84.82550048828125 84.241500854492187 83.587303161621094 83.445602416992188 83.166801452636719 83.5 83.80780029296875 83.998298645019531 84.035400390625 84.141899108886719 83.828300476074219 83.752403259277344 82.205299377441406 81.577796936035156 81.430000305175781 81.102798461914063 81.028800964355469 80.914497375488281 79.910697937011719 80.404899597167969 79.210800170898437 79.089302062988281 78.803298950195313 78.161399841308594 76.463600158691406 74.999702453613281 73.712600708007813 72.324897766113281 71.022102355957031 70.607498168945313 70.569999694824219 70.68389892578125 70.972396850585938 71.544403076171875 71.771697998046875 71.369300842285156 70.90899658203125 70.173301696777344 68.741302490234375 67.232597351074219 65.212898254394531 64.55169677734375 61.905300140380859 61.371799468994141 60.846900939941406 60.047500610351563 59.317298889160156 59.677600860595703 59.402198791503906 59.365001678466797 59.278701782226562 59.326801300048828 59.393100738525391 59.236400604248047 59.299598693847656 59.1864013671875 59.166400909423828 59.172698974609375 59.135101318359375 59.118099212646484 59.055099487304688 59.002498626708984 58.972599029541016 58.879100799560547 58.903900146484375 58.901901245117187 58.886699676513672 58.997699737548828 59.055500030517578 59.029499053955078 59.027099609375 59.020198822021484 58.997798919677734 59.053600311279297 59.083301544189453 59.067901611328125 59.082698822021484 59.071701049804688 59.173599243164062 59.094100952148438 59.199199676513672 59.080600738525391 59.102798461914063 59.2239990234375 59.330699920654297 59.265300750732422 59.338100433349609 59.265701293945313 59.465400695800781 59.524501800537109 59.502498626708984 59.456798553466797 58.368499755859375 58.958999633789063 59.42449951171875 59.405300140380859 59.403301239013672 59.367900848388672 59.346298217773437 59.307498931884766 59.311500549316406 59.327598571777344 59.413101196289063 59.242298126220703 59.217899322509766 59.234600067138672 59.256198883056641 59.260299682617187 59.297401428222656 59.310501098632813 59.369098663330078 59.355998992919922 59.349498748779297 59.319599151611328 59.291099548339844 59.318099975585938 60.531501770019531 71.392196655273437 59.647499084472656 57.740200042724609 57.787101745605469 56.9093017578125 55.572700500488281 55.102001190185547 55.165599822998047 55.257900238037109 55.235801696777344 55.199798583984375 55.341499328613281 55.406700134277344 56.92449951171875 57.386600494384766 57.249801635742188 57.564899444580078 57.998500823974609 58.316398620605469 58.418399810791016 60.123600006103516 71.864402770996094 60.230098724365234 60.000999450683594 59.997501373291016 60.091300964355469 59.936798095703125 59.872501373291016 59.777500152587891 59.773601531982422 59.741001129150391 59.587299346923828 59.622798919677734 59.725101470947266 59.618900299072266 59.643299102783203 59.526199340820313 59.638900756835937 59.731498718261719 59.706699371337891 59.917999267578125 60.563301086425781 60.733299255371094 60.873600006103516 60.551998138427734 60.676498413085937 60.690601348876953 60.6614990234375 60.780200958251953 60.576000213623047 60.583301544189453 60.899700164794922
73.841697692871094 74.387100219726563 75.178703308105469 76.020896911621094 76.792198181152344 77.350799560546875 77.720901489257813 76.918701171875 77.733901977539062 78.830802917480469 80.057403564453125 81.070198059082031 81.647598266601562 81.517097473144531 80.993202209472656 80.785896301269531 80.348701477050781 79.184097290039063 78.348098754882813 77.982597351074219 77.761199951171875 77.57550048828125 77.352203369140625 77.113197326660156 77.102401733398438 77.303596496582031 77.441497802734375 77.672096252441406 78.091400146484375 78.696601867675781 79.565696716308594 80.190696716308594 80.613197326660156 80.897102355957031 81.222297668457031 81.751296997070313 81.947601318359375 82.379096984863281 82.727897644042969 83.474700927734375 84.534500122070313 84.990699768066406 84.384803771972656 83.406303405761719 82.707298278808594 82.334999084472656 82.802001953125 83.557098388671875 84.426803588867187 84.963302612304688 84.864898681640625 84.255096435546875 83.813400268554687 83.27490234375 82.162002563476562 80.936897277832031 80.20159912109375 79.517097473144531 79.052101135253906 78.870101928710938 78.785499572753906 78.56829833984375 78.277702331542969 77.908096313476563 77.561897277832031 77.496299743652344 76.527999877929688 75.671096801757813 74.328598022460938 73.252998352050781 72.209396362304688 71.8594970703125 71.826896667480469 71.893600463867187 72.20989990234375 72.559898376464844 72.228103637695313 71.683601379394531 71.038902282714844 69.986503601074219 68.750297546386719 67.020301818847656 65.387001037597656 63.788799285888672 61.986400604248047 61.230300903320312 60.429500579833984 59.418899536132812 59.325000762939453 59.297100067138672 59.297100067138672 59.293701171875 59.273200988769531 59.244998931884766 59.223098754882812 59.231498718261719 59.240001678466797 59.229301452636719 59.215000152587891 59.165798187255859 59.150001525878906 59.127799987792969 59.051300048828125 58.982601165771484 58.965599060058594 58.903900146484375 58.886398315429688 58.923301696777344 58.869899749755859 58.983001708984375 59.015899658203125 59.017898559570313 59.027301788330078 59.023700714111328 59.020500183105469 59.051700592041016 59.048301696777344 59.060798645019531 59.058700561523438 59.075901031494141 59.146900177001953 59.160301208496094 59.155498504638672 59.072498321533203 59.0791015625 59.306098937988281 59.274898529052734 59.263401031494141 59.332801818847656 59.309299468994141 59.46820068359375 59.528701782226563 59.538200378417969 59.484699249267578 58.330501556396484 58.777301788330078 59.406600952148438 59.347999572753906 59.370899200439453 59.371200561523437 59.402900695800781 59.352001190185547 59.358699798583984 59.322700500488281 59.368000030517578 59.225101470947266 59.209400177001953 59.271800994873047 59.310001373291016 59.333099365234375 59.364299774169922 59.379600524902344 59.388801574707031 59.342800140380859 59.405498504638672 59.2947998046875 59.328899383544922 59.356700897216797 60.273101806640625 71.758598327636719 60.354801177978516 57.865699768066406 57.784099578857422 57.311798095703125 55.815898895263672 55.1781005859375 55.145198822021484 55.189201354980469 55.230201721191406 55.265201568603516 55.279201507568359 55.303901672363281 56.714199066162109 57.453998565673828 57.547599792480469 57.737499237060547 58.139198303222656 58.052101135253906 58.296001434326172 59.855098724365234 71.770797729492187 71.373802185058594 60.176998138427734 60.066898345947266 60.099399566650391 59.994899749755859 59.878700256347656 59.856601715087891 59.850101470947266 59.702800750732422 59.731899261474609 59.766399383544922 59.757701873779297 59.828300476074219 59.650398254394531 59.591598510742187 59.723201751708984 59.714401245117188 59.621700286865234 59.746299743652344 60.457000732421875 60.476200103759766 60.637500762939453 60.624500274658203 60.724700927734375 60.596698760986328 60.597301483154297 60.608898162841797 60.598499298095703 60.556499481201172 60.793201446533203
73.975303649902344 74.101799011230469 74.637397766113281 75.383102416992187 76.142799377441406 76.7489013671875 76.903800964355469 76.483100891113281 77.297798156738281 78.484199523925781 79.785102844238281 80.774002075195313 81.670196533203125 81.83709716796875 81.789199829101563 81.690299987792969 80.988998413085937 79.927597045898438 79.117103576660156 78.615501403808594 78.201301574707031 77.917800903320312 77.63189697265625 77.573097229003906 77.624801635742187 77.678298950195313 77.80419921875 78.088600158691406 78.291603088378906 78.632698059082031 79.219902038574219 79.687400817871094 80.031303405761719 80.476303100585937 80.86419677734375 81.366600036621094 82.028396606445312 82.421699523925781 83.138900756835938 84.097702026367188 85.175201416015625 85.087699890136719 83.76080322265625 82.444801330566406 81.568099975585938 81.279403686523438 81.679901123046875 82.475196838378906 83.689300537109375 84.734901428222656 84.407203674316406 83.472198486328125 82.854103088378906 81.991798400878906 80.8363037109375 79.603202819824219 78.670700073242187 78.188499450683594 77.87750244140625 77.822502136230469 77.761100769042969 77.514198303222656 75.944999694824219 75.262199401855469 75.472000122070312 75.814498901367188 76.096099853515625 75.907203674316406 75.331298828125 74.56719970703125 73.725799560546875 73.236503601074219 72.936798095703125 72.733299255371094 72.552902221679688 72.231002807617188 71.646598815917969 70.920196533203125 70.153900146484375 69.50579833984375 68.667800903320312 67.02850341796875 65.5823974609375 64.006599426269531 62.269798278808594 61.052898406982422 60.208400726318359 59.333599090576172 59.316898345947266 59.288398742675781 59.301200866699219 59.294200897216797 59.282199859619141 59.25360107421875 59.256599426269531 59.270000457763672 59.25 59.236400604248047 59.212699890136719 59.180698394775391 59.12860107421875 59.117500305175781 59.024501800537109 58.991500854492188 58.985698699951172 58.939800262451172 58.887199401855469 58.881801605224609 58.872501373291016 58.909900665283203 59.1427001953125 59.078098297119141 59.020698547363281 59.017398834228516 59.0625 59.086200714111328 59.047798156738281 59.050701141357422 59.059299468994141 59.126201629638672 59.132801055908203 59.104301452636719 59.155200958251953 59.052101135253906 59.03070068359375 59.187400817871094 59.317798614501953 59.2760009765625 59.326099395751953 59.365798950195313 59.502799987792969 59.512100219726563 59.505699157714844 59.513401031494141 58.447101593017578 58.681999206542969 59.400001525878906 59.432300567626953 59.362998962402344 59.315601348876953 59.336200714111328 59.344799041748047 59.344501495361328 59.355800628662109 59.353099822998047 59.321800231933594 59.307201385498047 59.309700012207031 59.364200592041016 59.386001586914063 59.346401214599609 59.31610107421875 59.347999572753906 59.357799530029297 59.35260009765625 59.340999603271484 59.318599700927734 59.343399047851563 60.006999969482422 71.964202880859375 70.728897094726563 58.159400939941406 57.832599639892578 57.487899780273437 56.024501800537109 55.166801452636719 55.192100524902344 55.270198822021484 55.278800964355469 55.298500061035156 55.286800384521484 55.261398315429688 56.080101013183594 57.152599334716797 57.540798187255859 57.569698333740234 57.910800933837891 58.320899963378906 58.424301147460937 59.547199249267578 61.948101043701172 71.183799743652344 60.319599151611328 60.10150146484375 60.115398406982422 59.944099426269531 59.900299072265625 59.846298217773438 59.777801513671875 59.761199951171875 59.806198120117188 59.802700042724609 59.806999206542969 59.8302001953125 59.641700744628906 59.703601837158203 59.716701507568359 59.642601013183594 59.555999755859375 59.724300384521484 60.578399658203125 60.536300659179687 60.583198547363281 60.593700408935547 60.616901397705078 60.548801422119141 60.569900512695313 60.645500183105469 60.589900970458984 60.283901214599609 60.79949951171875
74.229499816894531 74.124702453613281 74.20050048828125 74.692901611328125 75.275001525878906 75.264900207519531 75.053199768066406 75.558601379394531 76.955802917480469 77.936698913574219 78.959800720214844 79.911300659179688 80.620101928710937 81.414199829101563 81.960403442382812 82.1531982421875 81.740402221679688 80.940399169921875 80.125396728515625 79.506599426269531 78.878402709960938 78.466102600097656 78.170303344726562 78.124603271484375 78.000602722167969 77.916603088378906 78.034400939941406 78.212799072265625 78.319099426269531 78.468597412109375 78.755699157714844 79.116302490234375 79.898300170898437 80.463401794433594 80.89520263671875 81.441398620605469 82.190498352050781 82.888496398925781 83.766998291015625 84.974502563476562 85.407699584960938 85.064201354980469 83.357498168945313 81.238800048828125 80.510002136230469 80.464401245117187 81.103401184082031 81.995796203613281 82.536201477050781 83.163902282714844 82.982200622558594 81.87359619140625 80.789901733398438 80.315498352050781 79.739700317382812 79.043998718261719 77.854698181152344 76.920997619628906 76.695098876953125 76.658798217773438 76.52020263671875 76.215499877929688 74.783401489257813 74.057403564453125 73.844398498535156 73.800300598144531 73.805198669433594 74.062797546386719 74.633796691894531 74.712997436523438 74.305099487304688 73.910202026367188 73.4375 72.938796997070313 72.4364013671875 71.586402893066406 70.66729736328125 69.855796813964844 69.235702514648438 68.730697631835938 67.769096374511719 66.365402221679688 65.462699890136719 64.256301879882812 62.154201507568359 61.071399688720703 60.084999084472656 59.315101623535156 59.322498321533203 59.308300018310547 59.261699676513672 59.265201568603516 59.251201629638672 59.234500885009766 59.223201751708984 59.244800567626953 59.248600006103516 59.220001220703125 59.202499389648437 59.185100555419922 59.105899810791016 59.105400085449219 59.020000457763672 58.978900909423828 59.037399291992188 58.982498168945313 58.883399963378906 58.862598419189453 58.885299682617187 58.909801483154297 59.012500762939453 59.020000457763672 59.02130126953125 59.025001525878906 59.0281982421875 59.040798187255859 59.059799194335938 59.066200256347656 59.054500579833984 59.114898681640625 59.092998504638672 59.084098815917969 59.055198669433594 59.056198120117187 59.052101135253906 59.176898956298828 59.312900543212891 59.347400665283203 59.366500854492188 59.332801818847656 59.409801483154297 59.522800445556641 59.538200378417969 59.519100189208984 58.63690185546875 58.744098663330078 59.372699737548828 59.437198638916016 59.456901550292969 59.403499603271484 59.387401580810547 59.398200988769531 59.425998687744141 59.428298950195313 59.458499908447266 59.413101196289063 59.326999664306641 59.229000091552734 59.226398468017578 59.259601593017578 59.28070068359375 59.341899871826172 59.347400665283203 59.388698577880859 59.419601440429688 59.374000549316406 59.312599182128906 59.348400115966797 59.723098754882812 62.032501220703125 71.412200927734375 58.588100433349609 57.937301635742188 57.630699157714844 56.334201812744141 55.150100708007813 55.125198364257813 55.261699676513672 55.296501159667969 55.306198120117188 55.269798278808594 55.303600311279297 55.410800933837891 56.829700469970703 57.471401214599609 57.453300476074219 58.090900421142578 58.590599060058594 58.219398498535156 59.353199005126953 61.098598480224609 71.092796325683594 60.667800903320313 59.908500671386719 59.960601806640625 59.929798126220703 59.8656005859375 59.805801391601563 59.802898406982422 59.850200653076172 59.886798858642578 59.842899322509766 59.641498565673828 59.716800689697266 59.653099060058594 59.711601257324219 59.691501617431641 59.538299560546875 59.558498382568359 59.657798767089844 60.538299560546875 60.632099151611328 60.665298461914063 60.667800903320313 60.599601745605469 60.544498443603516 60.639499664306641 60.624599456787109 60.56610107421875 60.483100891113281 60.769401550292969
75.857200622558594 75.251899719238281 74.533798217773438 74.312400817871094 74.426002502441406 74.486503601074219 74.880401611328125 75.784698486328125 76.612602233886719 77.253799438476563 78.040496826171875 78.941001892089844 79.760200500488281 80.622703552246094 81.346099853515625 82.043800354003906 82.434196472167969 82.186500549316406 81.487396240234375 80.7427978515625 79.793098449707031 78.993301391601563 78.669097900390625 78.344802856445313 78.00360107421875 77.978401184082031 78.02960205078125 78.158897399902344 78.431999206542969 78.634201049804687 78.724998474121094 79.105003356933594 79.893997192382812 80.454498291015625 80.888397216796875 81.2958984375 82.200698852539063 83.008697509765625 84.242698669433594 85.359703063964844 85.415000915527344 84.655998229980469 83.059402465820313 80.752197265625 80.035697937011719 79.870796203613281 79.970901489257813 80.416702270507813 80.886398315429687 81.276100158691406 81.437896728515625 80.39019775390625 79.818397521972656 79.424896240234375 78.965599060058594 78.250602722167969 76.831703186035156 75.672500610351563 74.85009765625 74.679603576660156 75.2322998046875 75.005401611328125 73.512397766113281 72.509696960449219 72.159797668457031 72.095001220703125 72.157699584960937 72.238197326660156 72.463401794433594 72.92559814453125 73.459999084472656 73.566001892089844 73.188697814941406 72.677200317382813 71.953300476074219 70.834999084472656 69.741798400878906 68.825996398925781 68.184303283691406 67.484001159667969 66.535400390625 65.536300659179688 65.089797973632813 64.250297546386719 61.647598266601563 61.4031982421875 61.151599884033203 60.044200897216797 59.306098937988281 59.276401519775391 59.273700714111328 59.273200988769531 59.246700286865234 59.237701416015625 59.250099182128906 59.260601043701172 59.261798858642578 59.227798461914063 59.202701568603516 59.166301727294922 59.105598449707031 59.085399627685547 59.057098388671875 58.984100341796875 58.994899749755859 58.921699523925781 58.884300231933594 58.882499694824219 58.887500762939453 58.941600799560547 59.025001525878906 59.022800445556641 59.030899047851563 59.020401000976563 59.017398834228516 59.030300140380859 59.044300079345703 59.0458984375 59.038200378417969 59.057899475097656 59.01300048828125 59.097099304199219 59.046199798583984 59.006000518798828 59.063899993896484 59.180198669433594 59.317298889160156 59.338100433349609 59.365898132324219 59.288398742675781 59.168800354003906 59.268901824951172 59.215499877929688 59.052101135253906 58.631198883056641 58.438499450683594 59.390899658203125 59.370700836181641 59.31719970703125 59.350399017333984 59.467300415039063 59.486000061035156 59.520198822021484 59.50360107421875 59.487701416015625 59.459999084472656 59.372898101806641 59.25579833984375 59.324798583984375 59.371299743652344 59.375900268554688 59.381801605224609 59.389598846435547 59.394100189208984 59.377101898193359 59.369701385498047 59.295398712158203 59.346500396728516 59.410499572753906 61.649898529052734 71.664497375488281 59.029899597167969 58.105998992919922 57.928901672363281 56.789398193359375 55.398399353027344 55.172901153564453 55.249599456787109 55.270401000976562 55.270198822021484 55.2958984375 55.306598663330078 55.307998657226563 56.566501617431641 57.40679931640625 57.270900726318359 57.979198455810547 57.841098785400391 58.338401794433594 58.876399993896484 60.424098968505859 71.647003173828125 60.788600921630859 59.864398956298828 60.034198760986328 59.892200469970703 59.841300964355469 59.797000885009766 59.812999725341797 59.897998809814453 59.840301513671875 59.713600158691406 59.638999938964844 59.644100189208984 59.638900756835937 59.725898742675781 59.532600402832031 59.529399871826172 59.653598785400391 59.654701232910156 60.571399688720703 60.619300842285156 60.699600219726563 60.682300567626953 60.625999450683594 60.620399475097656 60.613998413085938 60.596900939941406 60.662399291992188 60.519199371337891 60.814498901367188
76.478202819824219 75.9906005859375 75.407203674316406 74.882797241210937 74.488296508789063 74.585502624511719 74.997100830078125 75.563499450683594 76.316802978515625 76.899398803710938 77.362800598144531 78.057098388671875 78.914299011230469 79.663597106933594 80.516197204589844 81.486099243164063 82.424697875976563 82.814697265625 82.508499145507813 81.831398010253906 80.816596984863281 79.844497680664063 79.180000305175781 78.753799438476562 78.373001098632812 78.16510009765625 78.204200744628906 78.274497985839844 78.392303466796875 78.607398986816406 78.907501220703125 79.365699768066406 79.959602355957031 80.4208984375 80.867698669433594 81.350700378417969 81.952796936035156 82.833702087402344 84.707099914550781 85.549598693847656 85.3948974609375 84.599899291992188 83.070198059082031 81.192001342773438 79.603797912597656 79.475303649902344 79.439002990722656 79.38189697265625 79.720802307128906 79.969398498535156 79.832298278808594 79.248497009277344 78.098098754882813 76.878402709960938 76.788002014160156 76.006401062011719 75.319602966308594 74.387702941894531 73.963096618652344 73.673500061035156 73.459297180175781 73.120201110839844 72.243499755859375 71.166297912597656 71.010200500488281 70.643997192382813 70.711700439453125 70.777999877929687 70.929702758789063 71.099197387695312 71.194999694824219 71.493797302246094 72.06719970703125 72.07440185546875 71.684402465820313 70.333999633789063 69.339797973632812 68.116500854492187 67.583198547363281 66.647499084472656 65.652000427246094 65.056602478027344 64.655502319335937 63.728599548339844 61.201499938964844 61.369098663330078 60.856800079345703 59.625 59.313201904296875 59.319198608398438 59.301101684570312 59.268699645996094 59.253101348876953 59.258598327636719 59.257499694824219 59.262500762939453 59.252498626708984 59.242801666259766 59.235401153564453 59.220001220703125 59.157100677490234 59.093799591064453 59.074501037597656 59.031501770019531 58.963600158691406 58.911201477050781 58.854900360107422 58.860500335693359 58.875 58.956001281738281 59.013099670410156 59.012599945068359 59.020599365234375 59.023998260498047 59.012199401855469 59.051200866699219 59.020500183105469 59.034400939941406 59.057098388671875 59.056301116943359 59.038398742675781 59.078399658203125 59.072299957275391 58.848098754882812 59.0531005859375 59.367099761962891 59.076301574707031 59.288200378417969 59.193199157714844 59.197200775146484 59.093799591064453 59.125099182128906 59.171398162841797 59.282901763916016 59.069900512695313 58.976699829101563 59.421901702880859 59.467998504638672 59.506599426269531 59.518699645996094 59.48809814453125 59.519401550292969 59.527999877929687 59.526500701904297 59.539798736572266 59.525600433349609 59.445999145507813 59.256599426269531 59.346401214599609 59.343498229980469 59.335498809814453 59.340400695800781 59.295299530029297 59.314098358154297 59.370998382568359 59.431098937988281 59.446300506591797 59.462100982666016 59.509201049804687 61.317298889160156 71.650299072265625 59.463798522949219 58.122100830078125 58.115699768066406 57.340900421142578 55.424301147460938 55.180301666259766 55.153800964355469 55.253398895263672 55.287200927734375 55.298801422119141 55.298099517822266 55.304599761962891 56.165901184082031 57.094898223876953 56.991401672363281 57.775398254394531 58 58.546199798583984 58.669101715087891 59.903800964355469 71.634803771972656 61.248199462890625 59.939300537109375 59.93389892578125 60.011001586914063 59.875598907470703 59.851699829101563 59.779598236083984 59.852199554443359 59.748699188232422 59.663898468017578 59.722599029541016 59.656398773193359 59.752700805664063 59.535099029541016 59.55059814453125 59.768798828125 59.787399291992188 59.981399536132813 60.593898773193359 60.716300964355469 60.679500579833984 60.648799896240234 60.482799530029297 60.592899322509766 60.627998352050781 60.704898834228516 60.666999816894531 60.617298126220703 60.756401062011719
76.63330078125 76.554496765136719 76.247901916503906 75.857902526855469 75.381599426269531 74.769302368164063 75.064598083496094 75.585601806640625 76.953498840332031 77.121200561523438 77.531097412109375 78.206199645996094 78.812599182128906 79.472503662109375 80.344100952148438 81.365798950195313 82.429702758789063 83.17230224609375 83.277496337890625 82.681900024414063 81.66290283203125 80.586799621582031 79.7843017578125 79.328201293945313 79.013603210449219 78.668502807617187 78.493400573730469 78.485603332519531 78.609901428222656 78.808097839355469 79.089302062988281 79.610397338867188 80.095802307128906 80.477401733398438 80.945602416992188 81.475303649902344 82.05999755859375 82.962997436523438 84.996101379394531 85.314201354980469 84.934600830078125 83.830802917480469 82.467002868652344 80.990997314453125 79.610702514648438 79.116600036621094 78.946296691894531 78.707199096679688 78.612297058105469 79.005500793457031 78.529998779296875 77.444099426269531 76.348297119140625 75.574302673339844 75.22760009765625 74.977096557617188 74.680900573730469 73.778999328613281 73.444801330566406 73.175498962402344 72.867897033691406 72.417999267578125 71.52349853515625 70.6083984375 70.24859619140625 69.996803283691406 69.748199462890625 69.738197326660156 69.3009033203125 69.23699951171875 69.620101928710938 70.180999755859375 70.831398010253906 71.294601440429687 71.190101623535156 70.260101318359375 69.012298583984375 67.696800231933594 67.357002258300781 66.245597839355469 65.278297424316406 64.844802856445312 64.531898498535156 63.087398529052734 61.178001403808594 61.273601531982422 61.000900268554688 59.780101776123047 59.362201690673828 59.310798645019531 59.292198181152344 59.284099578857422 59.277500152587891 59.267601013183594 59.268299102783203 59.275001525878906 59.253398895263672 59.245399475097656 59.2322998046875 59.205799102783203 59.142898559570312 59.150299072265625 59.07550048828125 58.986598968505859 59.018100738525391 59.025501251220703 58.865299224853516 58.831298828125 58.832000732421875 58.908298492431641 58.924301147460937 58.961498260498047 58.966999053955078 58.972698211669922 59.024700164794922 58.985599517822266 58.88330078125 58.988601684570313 59.119098663330078 59.130699157714844 59.149398803710937 59.132999420166016 59.207599639892578 59.277000427246094 59.3385009765625 59.382801055908203 59.498798370361328 59.450698852539063 59.352401733398437 59.446098327636719 59.507598876953125 59.495800018310547 59.512100219726563 59.517299652099609 59.362701416015625 58.989200592041016 59.444301605224609 59.512500762939453 59.504199981689453 59.485099792480469 59.496299743652344 59.539501190185547 59.599700927734375 59.583301544189453 59.5343017578125 59.472801208496094 59.471401214599609 59.310298919677734 59.399200439453125 59.347999572753906 59.347999572753906 59.348400115966797 59.312000274658203 59.384498596191406 59.422599792480469 59.394699096679688 59.385501861572266 59.367900848388672 59.511199951171875 60.872100830078125 71.524200439453125 59.886001586914063 58.131698608398437 58.245700836181641 57.522098541259766 56.127300262451172 55.240100860595703 55.119400024414063 55.26300048828125 55.272800445556641 55.296600341796875 55.280899047851562 55.252899169921875 55.7322998046875 56.357799530029297 56.528400421142578 57.332801818847656 57.970298767089844 58.430599212646484 58.353000640869141 59.419101715087891 71.462196350097656 71.959602355957031 59.904701232910156 60.197898864746094 60.267501831054688 60.487201690673828 59.952598571777344 60.155799865722656 60.017501831054687 59.731201171875 59.788101196289063 59.825401306152344 59.88079833984375 59.587699890136719 59.549999237060547 59.689601898193359 59.768699645996094 59.706298828125 60.345100402832031 60.724700927734375 60.566898345947266 60.644599914550781 60.626499176025391 60.542301177978516 60.515300750732422 60.617401123046875 60.703300476074219 60.714801788330078 60.591598510742188 60.737899780273437
76.859703063964844 76.970497131347656 76.885200500488281 76.788200378417969 76.676200866699219 76.335700988769531 76.343101501464844 77.561302185058594 77.934303283691406 77.921897888183594 78.285301208496094 79.118400573730469 79.828102111816406 80.243301391601563 80.775703430175781 81.675399780273438 82.699600219726563 83.440299987792969 83.685997009277344 83.331398010253906 82.316802978515625 81.214500427246094 80.43170166015625 80.028099060058594 79.661201477050781 79.286796569824219 79.066200256347656 78.958503723144531 79.053199768066406 79.276802062988281 79.81939697265625 80.038902282714844 80.267601013183594 80.607200622558594 81.076499938964844 81.610801696777344 82.316902160644531 83.489402770996094 84.86920166015625 84.54949951171875 83.908798217773438 83.237800598144531 82.652801513671875 81.262397766113281 79.702903747558594 78.852996826171875 78.587303161621094 78.460296630859375 78.323097229003906 77.475898742675781 76.495399475097656 75.943397521972656 75.45269775390625 75.062599182128906 74.735198974609375 74.519401550292969 74.189399719238281 73.494400024414063 73.14129638671875 72.870697021484375 72.490997314453125 71.920700073242187 70.947097778320312 70.2947998046875 69.913497924804687 69.638900756835938 69.442398071289062 69.182899475097656 68.794700622558594 68.460403442382812 68.732803344726563 69.224601745605469 69.905799865722656 70.575698852539063 70.816596984863281 70.19580078125 68.925399780273437 67.753501892089844 66.705299377441406 65.808799743652344 65.061897277832031 64.715103149414062 64.312400817871094 62.406299591064453 61.238899230957031 61.367599487304688 61.210498809814453 60.470401763916016 59.262100219726562 59.318599700927734 59.296199798583984 59.276599884033203 59.310298919677734 59.297100067138672 59.282501220703125 59.277500152587891 59.241401672363281 59.199298858642578 59.199298858642578 59.172698974609375 59.219200134277344 59.186100006103516 59.137199401855469 59.071399688720703 58.98809814453125 58.903701782226562 58.863399505615234 58.832698822021484 58.758598327636719 58.928901672363281 58.998798370361328 58.989799499511719 59.009998321533203 59.020000457763672 58.986598968505859 58.985198974609375 59.036701202392578 59.036598205566406 59.124801635742188 59.15679931640625 59.181800842285156 59.179401397705078 59.203601837158203 59.285400390625 59.33380126953125 59.399600982666016 59.503200531005859 59.463199615478516 59.351898193359375 59.349201202392578 59.561100006103516 59.492801666259766 59.547100067138672 59.534400939941406 59.490898132324219 59.434898376464844 59.435001373291016 59.484500885009766 59.545101165771484 59.519901275634766 59.466800689697266 59.434700012207031 59.379398345947266 59.355598449707031 59.404300689697266 59.443000793457031 59.401401519775391 59.405300140380859 59.412498474121094 59.387699127197266 59.423900604248047 59.403598785400391 59.353199005126953 59.447601318359375 59.415901184082031 59.369800567626953 59.373100280761719 59.385700225830078 59.478000640869141 60.452201843261719 71.72869873046875 70.402198791503906 58.090599060058594 58.048999786376953 57.818500518798828 55.964099884033203 55.273700714111328 55.191200256347656 55.242500305175781 55.262699127197266 55.268699645996094 55.289501190185547 55.254798889160156 55.303901672363281 55.616600036621094 56.048599243164062 57.175399780273438 57.825599670410156 58.323600769042969 58.189498901367187 59.107700347900391 61.201499938964844 72.523696899414062 60.179298400878906 60.104999542236328 60.371200561523438 60.314098358154297 60.543300628662109 60.245800018310547 59.892398834228516 60.02130126953125 60.395401000976563 60.71929931640625 60.555698394775391 59.626998901367188 59.816600799560547 59.935199737548828 59.987201690673828 59.789901733398438 60.293399810791016 60.70050048828125 60.864299774169922 60.668201446533203 60.681598663330078 60.782798767089844 60.641300201416016 60.657600402832031 60.746101379394531 60.653701782226562 60.578998565673828 60.777801513671875
76.887603759765625 77.233802795410156 77.172599792480469 77.341796875 77.469497680664063 77.572799682617188 77.734397888183594 77.951896667480469 78.167396545410156 78.475700378417969 78.891197204589844 79.525703430175781 80.128799438476562 80.688796997070312 81.208198547363281 81.969100952148438 82.90460205078125 83.60870361328125 83.893096923828125 83.734901428222656 83.119499206542969 82.234298706054687 81.7073974609375 81.12860107421875 80.496696472167969 79.977500915527344 79.618202209472656 79.528999328613281 79.828399658203125 80.162300109863281 80.21929931640625 80.3406982421875 80.498703002929687 80.845497131347656 81.31719970703125 82.024299621582031 83.100997924804687 83.968101501464844 83.89520263671875 83.395797729492187 82.697402954101563 82.243896484375 81.702102661132813 81.126899719238281 80.219497680664063 79.410598754882813 78.714797973632812 78.297897338867188 77.612396240234375 76.13580322265625 75.64019775390625 75.24420166015625 75.067901611328125 74.89990234375 74.603302001953125 74.437698364257813 73.9884033203125 73.351898193359375 72.934097290039063 72.598098754882813 72.164199829101563 71.586196899414063 71.166702270507813 70.336799621582031 69.757797241210937 69.310798645019531 69.079498291015625 68.833396911621094 68.438697814941406 68.153602600097656 68.067398071289063 68.27850341796875 69.155097961425781 70.057998657226562 70.949798583984375 70.572700500488281 69.25360107421875 67.768997192382812 66.352699279785156 65.435798645019531 64.962997436523438 64.617897033691406 64.313003540039063 62.084999084472656 61.332401275634766 61.335800170898438 60.975299835205078 60.065200805664062 59.329601287841797 59.318199157714844 59.351600646972656 59.217399597167969 59.294300079345703 59.356498718261719 59.282299041748047 59.297401428222656 59.362800598144531 59.354999542236328 59.340301513671875 59.40679931640625 59.352001190185547 59.250999450683594 59.272499084472656 59.046798706054688 59 58.949798583984375 58.897701263427734 58.905200958251953 58.938899993896484 58.962799072265625 58.973300933837891 58.992298126220703 59.007598876953125 59.012500762939453 59.030998229980469 59.034198760986328 59.025199890136719 59.047599792480469 59.19580078125 59.183700561523437 59.14849853515625 59.142601013183594 59.200599670410156 59.271198272705078 59.350700378417969 59.374401092529297 59.473201751708984 59.470798492431641 59.396701812744141 59.432498931884766 59.355499267578125 59.492000579833984 59.547100067138672 59.459701538085937 59.530300140380859 59.615501403808594 59.413501739501953 59.504199981689453 59.494499206542969 59.414798736572266 59.345500946044922 59.358600616455078 59.379100799560547 59.417701721191406 59.420398712158203 59.425498962402344 59.4093017578125 59.425998687744141 59.39739990234375 59.38909912109375 59.450000762939453 59.430099487304688 59.386600494384766 59.404899597167969 59.370899200439453 59.343299865722656 59.358600616455078 59.445701599121094 59.395999908447266 60.347198486328125 60.796001434326172 70.784103393554687 57.979698181152344 58.039398193359375 58.300098419189453 56.314098358154297 55.562000274658203 55.284198760986328 55.26300048828125 55.281398773193359 55.298599243164063 55.299598693847656 55.265701293945313 55.298698425292969 55.615200042724609 55.955898284912109 56.210700988769531 57.245201110839844 57.901298522949219 58.132301330566406 59.168399810791016 61.007999420166016 72.544601440429687 60.152400970458984 59.990200042724609 60.348899841308594 59.842498779296875 59.655101776123047 59.997501373291016 60.039398193359375 60.300098419189453 60.161800384521484 59.833198547363281 60.082401275634766 60.111499786376953 60.426998138427734 60.567298889160156 60.219398498535156 59.814998626708984 60.467899322509766 60.819099426269531 60.762500762939453 60.810100555419922 60.691898345947266 60.703998565673828 60.650001525878906 60.718700408935547 60.677799224853516 60.596500396728516 60.595699310302734 60.799999237060547
76.952400207519531 77.197998046875 77.624801635742187 77.945899963378906 78.172698974609375 78.212699890136719 78.152999877929688 78.207496643066406 78.580101013183594 79.114700317382813 79.539299011230469 79.836601257324219 80.285400390625 80.811996459960937 81.457801818847656 82.168601989746094 82.901901245117188 83.533302307128906 83.953498840332031 84.037803649902344 83.79949951171875 83.234100341796875 82.750099182128906 82.263099670410156 81.168502807617188 80.551597595214844 80.335197448730469 80.403602600097656 80.648300170898438 80.768402099609375 80.69830322265625 80.751197814941406 80.965400695800781 81.262802124023437 81.905899047851563 83.007003784179688 84.209098815917969 83.586196899414063 82.660797119140625 82.066902160644531 81.352500915527344 80.866302490234375 80.634498596191406 80.392097473144531 81.050399780273437 80.519798278808594 79.215103149414063 78.413398742675781 77.197502136230469 75.894996643066406 75.456596374511719 75.062103271484375 75.018798828125 75.0740966796875 75.359298706054687 75.179603576660156 74.764900207519531 74.544296264648438 73.72149658203125 73.147697448730469 73.103500366210938 72.428703308105469 72.854499816894531 73.58489990234375 73.323501586914063 71.243797302246094 69.856201171875 68.901199340820313 68.353797912597656 67.889701843261719 67.603797912597656 67.7677001953125 68.505599975585937 69.125396728515625 70.389801025390625 70.505897521972656 69.538299560546875 68.416000366210938 67.178901672363281 66.00250244140625 65.135101318359375 64.619003295898437 64.068000793457031 61.619400024414063 61.709300994873047 61.375900268554688 61.279598236083984 60.713298797607422 59.829200744628906 59.478900909423828 59.465599060058594 59.349899291992188 59.401699066162109 59.407699584960938 59.408798217773438 59.410301208496094 59.397499084472656 59.381698608398437 59.367698669433594 59.415699005126953 59.436798095703125 59.257499694824219 59.253101348876953 59.020698547363281 58.999801635742188 58.972301483154297 58.916500091552734 58.936199188232422 58.960498809814453 58.951301574707031 58.971900939941406 59.016101837158203 59.006099700927734 58.973598480224609 59.022701263427734 59.029998779296875 59.084201812744141 59.109100341796875 59.125999450683594 59.173698425292969 59.196300506591797 59.158599853515625 59.249900817871094 59.303501129150391 59.363498687744141 59.284400939941406 59.314201354980469 59.419399261474609 59.416801452636719 59.380599975585938 59.479000091552734 59.506099700927734 59.461399078369141 59.495399475097656 59.547798156738281 59.727001190185547 59.506401062011719 59.464801788330078 59.392898559570313 59.371498107910156 59.385200500488281 59.404098510742187 59.395801544189453 59.448699951171875 59.411899566650391 59.385398864746094 59.374801635742188 59.367099761962891 59.372501373291016 59.399200439453125 59.415599822998047 59.396900177001953 59.405899047851563 59.428298950195313 59.411098480224609 59.457099914550781 59.55419921875 59.5 59.480201721191406 59.638099670410156 60.249298095703125 71.190399169921875 58.00469970703125 57.978599548339844 58.365398406982422 56.610801696777344 55.792400360107422 55.383899688720703 55.267898559570313 55.279998779296875 55.294998168945312 55.292701721191406 55.277301788330078 55.3031005859375 55.270198822021484 56.158298492431641 55.5968017578125 56.749900817871094 57.754398345947266 58.100200653076172 59.189701080322266 60.145000457763672 72.5552978515625 59.842300415039063 60.072898864746094 60.22650146484375 59.973800659179688 60.187000274658203 60.058998107910156 60.118801116943359 60.109100341796875 60.084800720214844 60.057598114013672 59.944499969482422 60.069400787353516 59.794700622558594 60.017799377441406 60.103000640869141 60.096900939941406 60.377998352050781 60.420799255371094 60.3843994140625 60.485801696777344 60.548301696777344 60.576198577880859 60.505901336669922 60.594001770019531 60.648998260498047 60.617298126220703 60.910598754882813 60.935901641845703
78.210700988769531 77.529701232910156 77.592697143554688 77.919197082519531 78.48480224609375 78.809097290039063 78.825202941894531 78.756698608398438 79.193199157714844 79.775497436523438 80.553298950195313 81.024803161621094 80.771102905273437 80.764701843261719 81.502296447753906 82.216400146484375 82.927299499511719 83.435203552246094 83.897201538085938 84.222900390625 84.055702209472656 83.587196350097656 83.207000732421875 82.789299011230469 81.766899108886719 80.922698974609375 80.765602111816406 80.915397644042969 81.266998291015625 81.420700073242188 81.396896362304688 81.445602416992187 81.645797729492187 82.056900024414063 83.13909912109375 83.839401245117188 82.445297241210938 81.628402709960938 81.293502807617187 80.899200439453125 80.31500244140625 79.848197937011719 79.541000366210938 79.517799377441406 80.2760009765625 80.756202697753906 79.779800415039063 79.637702941894531 78.078903198242188 77.49310302734375 76.835899353027344 76.27490234375 76.545501708984375 76.617897033691406 76.593803405761719 76.080101013183594 75.835197448730469 76.405799865722656 76.435401916503906 76.50579833984375 76.466796875 76.265296936035156 76.013099670410156 75.813697814941406 74.653396606445313 72.625999450683594 70.666900634765625 69.105499267578125 68.384300231933594 67.782203674316406 67.401397705078125 67.435401916503906 67.82440185546875 68.540802001953125 69.310600280761719 70.26190185546875 69.408203125 68.612503051757812 67.720901489257812 66.643699645996094 65.659103393554688 64.807403564453125 63.419601440429688 61.644798278808594 61.695899963378906 61.297500610351563 60.929100036621094 61.017299652099609 59.969699859619141 59.479000091552734 59.426101684570313 59.362598419189453 59.390800476074219 59.4093017578125 59.417301177978516 59.434299468994141 59.381099700927734 59.393600463867187 59.401100158691406 59.44329833984375 59.439800262451172 59.336101531982422 59.229499816894531 59.101898193359375 58.979099273681641 58.989601135253906 58.981201171875 58.982799530029297 58.96820068359375 58.956699371337891 58.976600646972656 59.003799438476563 59.004398345947266 58.996700286865234 59.031898498535156 59.008399963378906 59.112800598144531 59.124698638916016 59.113998413085937 59.397201538085938 59.332698822021484 59.369098663330078 59.325000762939453 59.302600860595703 59.249198913574219 59.271999359130859 59.341098785400391 59.371498107910156 59.511299133300781 59.456298828125 59.707401275634766 59.643501281738281 59.6156005859375 59.606800079345703 59.633701324462891 59.782100677490234 59.606998443603516 59.480098724365234 59.507701873779297 59.497600555419922 59.554298400878906 59.574501037597656 59.592800140380859 59.514198303222656 59.386501312255859 59.421600341796875 59.397098541259766 59.464698791503906 59.426700592041016 59.428501129150391 59.418598175048828 59.468299865722656 59.496898651123047 59.485099792480469 59.492500305175781 59.453899383544922 59.510898590087891 59.541301727294922 59.647300720214844 59.52349853515625 59.899600982666016 71.594497680664063 58.23699951171875 58.109500885009766 58.323799133300781 56.968700408935547 55.580600738525391 55.178298950195313 55.226799011230469 55.191799163818359 55.2781982421875 55.279598236083984 55.266700744628906 55.303600311279297 55.409099578857422 55.526901245117188 55.643100738525391 56.949798583984375 57.527198791503906 58.202999114990234 58.226200103759766 59.479099273681641 72.271797180175781 60.297298431396484 60.143299102783203 60.021198272705078 60.200000762939453 60.143398284912109 60.077598571777344 60.160598754882813 60.151401519775391 60.067699432373047 60.139198303222656 60.118000030517578 60.002300262451172 59.9093017578125 60.006801605224609 60.041301727294922 60.130001068115234 60.255500793457031 60.252899169921875 60.302799224853516 60.210399627685547 60.117198944091797 59.949199676513672 60.255599975585938 60.4833984375 60.598400115966797 60.493598937988281 60.366401672363281 60.266399383544922
81.778900146484375 80.861503601074219 78.732002258300781 78.034500122070312 78.343696594238281 78.687301635742187 79.284698486328125 79.356796264648437 79.541397094726563 80.777198791503906 80.918197631835938 81.194801330566406 81.259902954101563 81.229896545410156 81.5343017578125 82.215797424316406 82.765899658203125 83.507102966308594 84.201103210449219 84.540298461914062 84.612701416015625 84.2344970703125 83.633697509765625 83.044097900390625 82.194198608398438 81.480499267578125 81.349700927734375 81.69830322265625 82.993400573730469 82.390899658203125 82.396003723144531 82.426002502441406 82.969497680664063 83.668998718261719 83.253402709960937 81.796897888183594 80.922698974609375 80.160102844238281 80.045600891113281 80.004203796386719 79.756401062011719 79.254600524902344 78.840599060058594 78.876998901367188 79.479698181152344 80.017799377441406 80.657600402832031 80.466102600097656 80.472198486328125 80.119697570800781 79.751800537109375 79.731498718261719 79.410102844238281 79.151100158691406 78.42120361328125 78.265701293945313 77.572998046875 77.611396789550781 77.774497985839844 77.0635986328125 76.568901062011719 76.061698913574219 75.681198120117188 75.229598999023438 74.658599853515625 73.267601013183594 71.520896911621094 69.630096435546875 68.235198974609375 67.732398986816406 67.398300170898437 67.36309814453125 67.363998413085938 67.610603332519531 67.978599548339844 68.515800476074219 69.184501647949219 68.726303100585937 67.923797607421875 66.964996337890625 66.200103759765625 64.836601257324219 63.015998840332031 61.973300933837891 61.062400817871094 60.176898956298828 60.189498901367188 60.622501373291016 59.606700897216797 59.442600250244141 59.423301696777344 59.367801666259766 59.367198944091797 59.387100219726563 59.419101715087891 59.404499053955078 59.391201019287109 59.388900756835938 59.406200408935547 59.398700714111328 59.331901550292969 59.284198760986328 59.288501739501953 59.151401519775391 59.001399993896484 58.993801116943359 58.981498718261719 58.986598968505859 58.957000732421875 58.956100463867188 58.972301483154297 58.992900848388672 59.006999969482422 59.0093994140625 59.029499053955078 59.063301086425781 59.114398956298828 59.119098663330078 59.121700286865234 59.519699096679688 59.391998291015625 59.445499420166016 59.391998291015625 59.333999633789062 59.224601745605469 59.304401397705078 59.363498687744141 59.382900238037109 59.426399230957031 59.538700103759766 59.724601745605469 59.689601898193359 59.631401062011719 59.721900939941406 59.723098754882812 59.691501617431641 59.621498107910156 59.729900360107422 59.61309814453125 59.605800628662109 59.604999542236328 59.626800537109375 59.609699249267578 59.551498413085938 59.51300048828125 59.531898498535156 59.543201446533203 59.496200561523438 59.473098754882813 59.471199035644531 59.462200164794922 59.444900512695313 59.478401184082031 59.482398986816406 59.51300048828125 59.464199066162109 59.543201446533203 59.634101867675781 59.652400970458984 59.598400115966797 59.580299377441406 71.942901611328125 58.739601135253906 58.182701110839844 58.116001129150391 56.465099334716797 55.403999328613281 55.310600280761719 55.381000518798828 55.273101806640625 55.270401000976562 55.441200256347656 55.427700042724609 55.542598724365234 55.630599975585937 55.854301452636719 55.981601715087891 56.456401824951172 57.387401580810547 57.940200805664062 57.94940185546875 59.101898193359375 71.125801086425781 70.472602844238281 60.315200805664063 60.046199798583984 60.141700744628906 60.0458984375 60.102100372314453 60.242698669433594 60.288600921630859 60.154201507568359 60.132400512695313 60.125999450683594 59.968898773193359 59.931098937988281 59.914600372314453 59.903301239013672 59.946399688720703 60.041599273681641 60.059799194335938 60.206401824951172 60.190399169921875 59.989200592041016 59.944801330566406 60.208900451660156 60.430500030517578 60.362201690673828 60.213600158691406 60.0343017578125 60.113998413085938
83.048301696777344 83.678298950195313 82.541297912597656 79.991096496582031 79.658897399902344 79.301002502441406 78.935600280761719 79.581298828125 80.271003723144531 80.819000244140625 81.212997436523438 81.1593017578125 81.166702270507813 81.16400146484375 81.3988037109375 82.0177001953125 82.78179931640625 83.580703735351563 84.269699096679688 84.83489990234375 84.929801940917969 84.760101318359375 84.273597717285156 83.629898071289062 82.617698669433594 82.072898864746094 82.34649658203125 82.7958984375 83.743797302246094 83.809501647949219 84.338699340820313 84.31109619140625 83.563796997070313 82.976097106933594 81.538200378417969 80.486099243164063 79.816398620605469 79.18280029296875 79.084396362304688 79.086898803710937 78.61669921875 78.209503173828125 77.706298828125 78.074798583984375 79.221199035644531 79.159500122070313 79.98480224609375 80.045600891113281 79.847099304199219 80.157501220703125 80.262802124023438 80.499099731445312 80.119697570800781 79.739097595214844 79.474700927734375 78.750801086425781 78.309600830078125 78.197502136230469 77.604400634765625 75.737899780273437 74.891700744628906 74.839500427246094 74.576103210449219 74.388999938964844 73.915802001953125 73.3583984375 72.565696716308594 70.270401000976563 68.984596252441406 68.181297302246094 67.448196411132813 67.208999633789063 67.185798645019531 66.854301452636719 66.997200012207031 67.655296325683594 68.351699829101563 68.200897216796875 67.717697143554688 67.176101684570313 66.457298278808594 64.60479736328125 62.086200714111328 61.301399230957031 60.734798431396484 60.342700958251953 60.246498107910156 60.131099700927734 59.537200927734375 59.448101043701172 59.470901489257813 59.372299194335938 59.409198760986328 59.375400543212891 59.424598693847656 59.447601318359375 59.395198822021484 59.353099822998047 59.389499664306641 59.402801513671875 59.3468017578125 59.292701721191406 59.295501708984375 59.092498779296875 59.033298492431641 59.065101623535156 58.987201690673828 58.990001678466797 58.972599029541016 58.931900024414063 58.967300415039063 58.972099304199219 59.00830078125 59.012401580810547 59.044399261474609 59.021400451660156 59.102699279785156 59.129199981689453 59.145301818847656 59.486198425292969 59.435398101806641 59.36920166015625 59.263698577880859 59.307598114013672 59.218799591064453 59.25579833984375 59.332099914550781 59.372398376464844 59.487201690673828 59.491500854492188 59.655601501464844 59.617801666259766 59.575199127197266 59.568599700927734 59.521099090576172 59.515701293945313 59.726100921630859 59.757999420166016 59.651298522949219 59.671798706054687 59.6593017578125 59.678398132324219 59.641998291015625 59.574100494384766 59.559101104736328 59.556800842285156 59.563201904296875 59.525699615478516 59.430999755859375 59.505001068115234 59.421699523925781 59.466899871826172 59.558998107910156 59.561500549316406 59.557899475097656 59.540401458740234 59.597099304199219 59.64630126953125 59.664100646972656 59.567298889160156 59.3406982421875 71.808601379394531 59.408000946044922 58.122398376464844 57.481201171875 56.500701904296875 55.803600311279297 55.365299224853516 55.359901428222656 55.473098754882813 55.674098968505859 55.66619873046875 55.713798522949219 55.712699890136719 55.749801635742187 55.787799835205078 55.755401611328125 56.227298736572266 57.695701599121094 58.182300567626953 57.840198516845703 59.126399993896484 60.364700317382813 71.082000732421875 60.743301391601563 60.009601593017578 59.975498199462891 60.129798889160156 60.11309814453125 60.17449951171875 60.363300323486328 60.227199554443359 60.138801574707031 60.107200622558594 60.055500030517578 59.957901000976562 59.924400329589844 59.939201354980469 59.995601654052734 60.451499938964844 60.4208984375 60.425701141357422 60.076698303222656 59.801200866699219 59.942699432373047 60.136299133300781 60.298801422119141 60.327899932861328 60.174800872802734 60.112098693847656 60.167198181152344
