ncols         295
nrows         32
xllcorner     253783.272391
yllcorner     405037.356521
cellsize      10
NODATA_value  -9999
-9999.0000  -9999.0000  -9999.0000  -9999.0000  -9999.0000  -9999.0000  -9999.0000  -9999.0000  -9999.0000  -9999.0000  -9999.0000  -9999.0000  -9999.0000  -9999.0000  -9999.0000  -9999.0000  -9999.0000  -9999.0000  -9999.0000  -9999.0000  -9999.0000  -9999.0000  -9999.0000  -9999.0000  -9999.0000  -9999.0000  -9999.0000  -9999.0000  -9999.0000  -9999.0000  -9999.0000  -9999.0000  64.3026  64.2862  64.3098  64.3054  64.2904  63.3827  63.4189  63.4019  63.0675  64.0955  65.8166  66.6991  67.4075  66.5449  65.5838  65.3946  65.3691  63.4220  63.3514  63.3865  63.2404  62.4644  61.7786  61.8997  61.8274  61.6768  61.5732  60.7579  60.5945  60.5784  60.5809  60.5887  60.5809  60.5528  60.5691  60.5489  60.5638  60.8407  61.1253  61.7890  60.4087  61.6565  59.7832  59.8309  59.8482  59.8265  59.5966  59.5656  59.5980  59.5834  59.5642  59.5744  59.5751  59.5823  59.0198  58.6815  58.6958  58.6855  58.6660  58.6611  58.6729  58.6959  58.6900  58.5623  59.0791  59.9693  59.8930  72.4285  70.0861  56.6378  55.7281  55.5247  58.4822  72.0821  59.0456  58.5715  58.8062  58.7988  58.7829  58.7850  58.7635  58.6279  58.5669  58.5517  58.5300  58.5460  58.5911  58.6063  58.6011  58.5972  58.8391  58.8341  58.8340  58.8936  59.1100  59.1370  59.1282  59.8299  60.1094  58.2945  58.1447  58.1712  58.1387  58.1514  58.2345  58.2543  58.2542  58.2405  58.3182  58.4379  58.8771  58.8691  58.8762  58.8597  58.8503  58.9058  59.7311  59.9637  59.9842  59.9789  59.9998  60.0148  60.1159  60.4044  60.4373  60.4412  60.4371  60.4128  60.4149  60.4418  61.0489  61.4957  61.0360  61.0740  61.0891  61.0898  61.0678  61.0979  61.1021  61.1211  61.0080  61.0063  60.9982  60.9591  60.9964  61.0308  61.0322  61.1407  61.0231  60.6573  60.0644  59.6526  58.6057  58.0964  58.1077  58.5226  60.0996  58.1383  58.1161  58.0405  57.8731  57.9016  57.8770  57.7502  57.6579  57.4143  57.2436  70.5033  57.8063  56.5881  56.1469  55.8974  55.7632  55.1354  53.8642  53.7458  53.6896  53.7002  53.6727  53.4507  53.5523  53.5853  53.6639  54.2455  55.5490  56.1752  55.6692  55.2796  55.3025  56.7423  57.5511  57.7500  58.7945  69.7619  59.5355  58.6394  58.6198  58.6011  58.5550  58.0285  57.8900  57.9104  58.0552  58.0758  58.2334  57.8029  58.3263  58.0412  57.5010  57.3451  57.3821  57.2945  57.1408  56.9309  58.2668  57.4187  57.4200  57.5325  57.4886  57.8516  57.9418  57.9019  57.8624  57.9787  58.0691  58.0226  58.1027  58.6054  58.6583  58.5635  58.5285  58.5022  58.4717  58.6092  58.8785  59.0286  59.6842  60.1147  60.5696  60.7712  61.1109  61.1565  60.9348  60.7468  60.7706  60.7304  61.2477  61.2964  61.2685  60.7806  60.6099  60.6352  60.6739  60.7713  60.8424  61.2940  61.3152  61.4644  61.7657  61.8136  61.8420  62.0486  62.1256
-9999.0000  -9999.0000  -9999.0000  -9999.0000  -9999.0000  -9999.0000  -9999.0000  -9999.0000  -9999.0000  -9999.0000  -9999.0000  -9999.0000  -9999.0000  -9999.0000  -9999.0000  -9999.0000  -9999.0000  -9999.0000  -9999.0000  -9999.0000  -9999.0000  -9999.0000  -9999.0000  -9999.0000  -9999.0000  -9999.0000  -9999.0000  -9999.0000  -9999.0000  -9999.0000  -9999.0000  64.3429  64.3428  64.3153  64.3317  64.3577  64.4300  63.9519  63.0418  63.6918  64.8761  67.0884  68.6432  68.1587  67.9941  67.8761  66.8610  65.9938  66.1225  64.9657  63.4410  63.3940  63.3625  63.2432  62.7620  61.7156  61.7458  61.7407  60.7358  60.6191  60.5951  60.6022  60.5861  60.5891  60.5647  60.5369  60.5700  60.5545  60.5640  60.5831  60.7018  61.5099  61.6951  60.2031  61.3244  59.7088  59.8417  59.5998  59.5671  59.5600  59.5794  59.5882  59.5733  59.5869  59.5928  58.9048  59.1643  59.3471  58.6910  58.6978  58.6547  58.6591  58.7037  58.6869  58.7157  58.6958  59.0943  60.5857  61.0267  72.0426  58.0624  56.4456  55.9391  56.7187  70.8049  71.4550  58.3047  58.7873  58.7826  58.7838  58.8053  58.8069  58.7962  58.7858  58.7199  58.5562  58.5272  58.5718  58.5929  58.5929  58.6019  58.7441  58.8400  58.8278  58.8387  59.0787  59.1356  59.1374  59.3955  59.8969  60.0479  60.2783  58.9535  58.2011  58.1498  58.1849  58.2528  58.2400  58.2474  58.2533  58.4692  58.8212  58.8950  58.8969  58.8835  58.8971  58.8828  58.8624  59.8908  59.9700  59.9675  59.9971  60.0271  60.0194  60.3217  60.4293  60.4249  60.4127  60.4515  60.4220  60.4253  60.7692  60.9697  61.1778  61.5292  61.0567  61.0767  61.0600  61.0444  61.1140  61.1412  61.2301  61.0542  61.0229  61.0022  60.9711  61.0348  60.9522  61.2923  61.1853  60.7841  60.5071  59.7676  58.5322  57.9695  57.9541  57.9854  59.2092  59.9891  58.1021  57.6983  57.5463  57.5139  57.5390  57.4703  57.4401  57.4577  57.4200  57.3069  70.1644  58.5349  56.7692  56.2119  55.9625  55.7467  55.4571  53.8515  53.7714  53.8090  54.1534  53.8017  53.5488  53.5884  53.7609  53.5786  53.8424  53.9335  55.9680  55.4176  55.3944  55.4999  56.7872  57.6917  57.9235  58.3873  69.8729  59.4507  58.6717  58.7008  58.6808  58.6582  58.2671  57.9691  58.0322  58.2486  58.0744  58.4493  58.3789  58.4318  57.9784  57.5866  57.3109  57.3629  57.4730  57.3453  57.0603  58.3555  57.4333  57.4726  57.5266  57.5790  57.7823  57.7780  57.8677  57.8584  57.9277  58.0233  58.0076  58.0679  58.5353  58.6252  58.5556  58.5181  58.5217  58.5142  58.7869  58.8983  58.9586  59.8539  60.3213  60.4324  60.6071  60.7990  60.9230  60.7621  60.6729  60.7654  60.9338  61.0949  61.1899  61.2097  60.8236  60.6409  60.6345  60.7088  60.7844  60.9208  61.2730  61.2898  61.4208  61.7159  61.8369  61.9274  62.0804  62.1887
-9999.0000  -9999.0000  -9999.0000  -9999.0000  -9999.0000  -9999.0000  -9999.0000  -9999.0000  -9999.0000  -9999.0000  -9999.0000  -9999.0000  -9999.0000  -9999.0000  -9999.0000  -9999.0000  -9999.0000  -9999.0000  -9999.0000  -9999.0000  -9999.0000  -9999.0000  -9999.0000  -9999.0000  -9999.0000  -9999.0000  -9999.0000  -9999.0000  -9999.0000  -9999.0000  65.4750  64.3509  64.3285  64.0911  64.3781  66.0961  65.6928  65.8107  68.6883  68.2125  68.3550  69.0029  69.4816  69.3325  69.1731  68.3683  67.2218  66.6454  66.5538  66.0533  64.4668  63.3583  63.2929  63.2617  63.1731  62.7582  61.6189  61.1105  60.8855  60.7884  60.6220  60.6072  60.5949  60.5729  60.5522  60.5578  60.5636  60.5750  60.5691  60.5800  60.4916  60.9291  60.4280  61.5821  59.9359  60.7682  59.3466  59.5697  59.5418  59.5615  59.5631  59.5819  59.5902  59.5739  59.4088  59.0998  59.0971  59.1812  59.2971  58.6698  58.6478  58.7120  58.7360  58.7111  58.7029  58.7028  58.7063  59.9687  72.3761  69.8976  57.0644  56.5068  56.1426  58.7822  71.9491  59.2778  58.8835  58.7823  58.7691  58.7884  58.7905  58.8028  58.7827  58.7756  58.7989  58.7148  58.5729  58.5928  58.6000  58.6028  58.7941  58.8319  58.8258  58.8283  58.9910  59.1091  59.1234  59.3350  59.9473  59.9260  59.8714  60.0991  60.1260  59.6144  58.1729  58.2369  58.2296  58.2319  58.2518  58.2118  59.2393  58.8828  58.8891  58.8767  58.8727  58.8931  58.9713  59.5837  59.8700  59.9022  59.9574  60.0109  60.0218  60.2976  60.4205  60.4872  60.4358  60.4251  60.4409  60.4419  60.9626  61.1534  60.9256  60.9754  61.1155  61.2934  61.0489  61.0500  61.0627  61.1478  61.2551  60.9938  60.9878  60.9956  60.9678  60.9481  60.9563  61.3916  61.5276  61.1669  60.7130  59.7565  58.7002  57.9671  57.9314  57.8708  57.8768  59.3845  59.8864  58.2604  57.6496  57.5522  57.5008  57.5182  57.4419  57.4524  57.4347  57.4072  57.3687  69.7981  68.6904  57.0144  56.2986  56.0066  55.7116  55.5851  53.8982  53.8977  53.7910  54.1661  53.9231  53.5757  53.6236  54.0072  53.5979  53.6285  53.6474  55.4544  55.8839  55.5776  55.6278  56.6551  57.7860  57.9158  58.2795  70.0749  59.5122  58.7602  58.7264  58.7379  58.7224  58.3573  58.0017  58.4803  58.2802  58.3897  58.2151  58.1997  58.1285  58.0241  57.5601  57.5275  57.4112  57.5101  57.3838  56.8129  56.7741  57.4858  57.6498  57.5302  57.5914  57.6509  57.7178  57.8058  57.7852  57.8364  58.0377  58.0825  58.1023  58.4879  58.5784  58.5022  58.5219  58.5123  58.5821  58.9173  58.8748  58.8919  59.8550  60.3945  60.3999  60.4969  60.6238  60.6983  60.6054  60.6429  60.6550  60.8055  60.9941  61.1054  61.1177  60.7566  60.6372  60.6511  60.7008  60.7547  61.2578  61.2724  61.3323  61.4504  61.7582  61.8318  61.9119  62.1302  62.1502
-9999.0000  -9999.0000  -9999.0000  -9999.0000  -9999.0000  -9999.0000  -9999.0000  -9999.0000  -9999.0000  -9999.0000  -9999.0000  -9999.0000  -9999.0000  -9999.0000  -9999.0000  -9999.0000  -9999.0000  -9999.0000  -9999.0000  -9999.0000  -9999.0000  -9999.0000  -9999.0000  -9999.0000  -9999.0000  -9999.0000  -9999.0000  -9999.0000  -9999.0000  65.5067  65.2902  64.6909  64.0351  64.8965  66.1952  67.7530  68.4067  68.7583  69.8337  69.6209  69.6812  70.2391  70.7060  70.4418  69.9694  69.2448  68.1714  67.7096  66.9510  66.8876  66.1492  64.3862  63.1933  63.1832  63.1800  63.1594  62.4866  61.1179  60.8460  60.8232  60.7530  60.6673  60.5728  60.5521  60.5433  60.5541  60.5713  60.5378  60.5489  60.4677  60.7538  59.9207  60.0305  61.3768  61.2600  61.2492  60.1930  59.6182  59.5767  59.5508  59.5707  59.5705  59.5677  58.9113  59.0531  59.0993  59.0972  59.0835  59.1116  58.7838  58.7206  58.7232  58.7117  58.6969  58.6706  58.7087  58.7253  61.4205  71.8866  58.4017  57.5333  56.9754  56.9535  70.6992  71.6154  58.1613  58.8193  58.7843  58.7982  58.7884  58.7983  58.7904  58.7765  58.7887  58.7883  58.7835  58.7304  58.6477  58.5958  58.6278  58.8224  58.8300  58.8358  58.9913  59.1115  59.1356  59.3559  59.9192  59.9104  59.9236  59.9436  59.9995  60.0179  60.2563  59.8575  58.9615  58.2379  58.1971  58.2295  58.2370  59.2600  58.8641  58.8735  58.8851  58.8662  58.8932  59.4295  59.8496  59.8553  59.8569  59.8801  59.9845  60.2841  60.4329  60.4339  60.4622  60.4602  60.4327  60.4166  60.5669  60.9467  61.0958  60.9926  60.9418  61.0678  61.1112  61.0522  61.0472  61.0608  61.0770  61.0639  61.0372  61.0016  61.0761  61.1633  61.0540  61.0780  61.2751  61.2201  60.7514  59.9338  59.0112  57.8892  57.8796  57.8681  57.8368  57.8636  59.3612  59.8258  58.3830  57.6012  57.5338  57.4910  57.5220  57.4263  57.4217  57.4487  57.4271  57.4620  59.4032  69.0584  57.0020  56.3871  56.1272  55.6935  55.8155  54.2771  53.9451  53.8319  54.1827  53.9230  53.5504  53.6737  53.7866  53.9803  53.6214  53.6383  54.8113  55.1612  55.6285  55.7056  56.7150  57.9261  57.9313  58.1101  70.3379  59.5620  58.9468  58.7530  58.7713  58.7678  58.4898  58.5186  58.5104  58.4061  58.3853  58.3369  58.3313  58.1862  58.0381  57.8216  57.5562  57.5022  57.5385  57.5123  57.0658  56.7488  58.0024  57.3174  57.5422  57.6680  57.6400  57.7316  57.8163  57.8004  57.9196  58.0336  58.0721  58.0586  58.3562  58.5438  58.5256  58.5279  58.5189  58.5526  58.9359  58.9202  58.8837  59.8901  60.3610  60.3425  60.3450  60.3736  60.4835  60.8516  60.8748  61.0109  60.9834  61.0012  61.0712  60.8687  60.6447  60.6767  60.6374  60.6817  60.6769  61.3334  61.3334  61.4359  61.5955  61.7873  61.7694  61.9124  62.1115  62.1656
-9999.0000  -9999.0000  -9999.0000  -9999.0000  -9999.0000  -9999.0000  -9999.0000  -9999.0000  -9999.0000  -9999.0000  -9999.0000  -9999.0000  -9999.0000  -9999.0000  -9999.0000  -9999.0000  -9999.0000  -9999.0000  -9999.0000  -9999.0000  -9999.0000  -9999.0000  -9999.0000  -9999.0000  -9999.0000  -9999.0000  -9999.0000  -9999.0000  -9999.0000  65.5337  65.6363  64.8167  65.6680  67.3426  67.8748  68.5852  69.5837  70.5190  70.8808  70.8998  71.1024  71.5377  71.7361  70.9994  70.3434  70.0035  69.4875  69.1102  68.3042  67.2105  66.8582  65.9577  64.1607  63.1718  63.1681  63.1593  62.6712  61.4693  61.0562  60.8184  60.8436  60.7970  60.6592  60.5453  60.5376  60.5815  60.5744  60.6519  60.6018  60.5926  59.8663  59.8776  59.8827  60.2398  61.2140  61.4592  60.0192  59.6691  59.5734  59.4586  59.5155  59.5851  59.0570  59.0200  59.0933  59.0951  59.1024  59.0882  59.0700  59.0116  58.8400  58.8309  58.8788  58.6874  58.7021  58.6985  59.2748  71.9388  70.5282  57.9577  57.5430  57.5935  58.8055  72.3626  59.6634  58.6433  58.8033  58.7982  58.7835  58.7969  58.7796  58.7887  58.7864  58.7833  58.7805  58.7787  58.7745  58.7437  58.6486  58.8113  58.8269  58.8394  58.9260  59.1242  59.1312  59.1400  59.8256  59.9236  59.9196  59.9366  59.9848  59.9900  59.9645  60.0740  60.3212  59.9936  58.8636  58.2100  58.2326  58.8154  59.0047  58.8853  58.8827  58.8971  58.8902  59.4552  59.8500  59.8482  59.8561  59.8469  59.8668  59.9730  60.4351  60.1941  60.4312  60.4334  60.4631  60.4345  60.6005  61.0187  60.9575  61.0643  61.0359  60.9124  61.0564  61.0335  61.0533  61.0573  61.0957  61.2066  61.0417  61.0366  61.1849  61.0090  61.0784  61.0647  60.9345  61.0281  61.0619  60.5455  59.4716  57.8413  57.9030  57.8379  57.8538  57.8105  57.8258  59.2376  59.6588  58.3186  57.5911  57.5476  57.4864  57.5092  57.4388  57.4226  57.4418  57.4647  57.4901  59.1325  69.1966  56.9479  56.2390  56.0637  55.6072  56.0701  54.3396  53.9878  53.8715  54.1850  53.9252  53.9108  53.5861  53.9411  54.0694  53.6844  53.6421  53.6898  54.8874  55.4686  56.0821  57.3037  57.8796  57.9590  57.8695  70.0979  69.8514  58.9913  58.7867  58.8345  58.7863  58.7184  58.6700  58.6611  58.6021  58.5298  58.4565  58.3318  58.2594  58.1647  57.8690  57.6753  57.6652  57.6214  57.5807  57.1402  57.6748  57.1361  57.5448  57.1734  57.6603  57.6825  57.6609  57.8121  57.8071  57.7921  58.0520  57.9918  57.9998  58.2342  58.1494  58.3705  58.5793  58.5410  58.5282  58.7307  58.7172  58.8245  59.7259  59.7269  59.8933  60.0765  60.2974  60.2916  60.5623  60.6219  60.6809  60.7941  60.9075  60.8633  60.7763  60.6693  60.6586  60.6970  60.7239  60.6502  61.2474  61.4028  61.4287  61.6087  61.7769  61.8351  61.9028  62.1170  62.1842
-9999.0000  -9999.0000  -9999.0000  -9999.0000  -9999.0000  -9999.0000  -9999.0000  -9999.0000  -9999.0000  -9999.0000  -9999.0000  -9999.0000  -9999.0000  -9999.0000  -9999.0000  -9999.0000  -9999.0000  -9999.0000  -9999.0000  -9999.0000  -9999.0000  -9999.0000  -9999.0000  -9999.0000  -9999.0000  -9999.0000  -9999.0000  -9999.0000  64.8362  66.2170  66.6555  67.9001  69.1314  69.3637  69.0947  69.4026  70.2169  71.3409  72.0791  72.1732  72.3602  72.7487  72.5709  71.7202  71.0424  71.4179  70.6126  70.3720  70.3209  68.7397  67.0134  66.8381  65.2905  63.7338  63.1440  63.1549  62.9018  62.0535  61.1835  60.8144  60.8342  60.8162  60.8026  60.6487  60.5639  60.5773  60.6093  60.7522  60.3865  59.8739  59.8831  59.8731  59.8747  59.8568  60.0600  60.2737  59.6949  59.6937  59.5810  59.4219  59.5869  59.4773  59.0882  59.1086  59.0875  59.0936  59.0690  59.0700  59.0882  59.0953  59.0029  59.1682  59.2012  58.8333  58.7025  58.7075  60.7826  71.9552  58.8163  57.6367  57.6483  58.1689  70.8029  71.4826  58.2137  58.7822  58.8031  58.8040  58.7991  58.7901  58.7925  58.7953  58.7964  58.7736  58.7729  58.7700  58.7634  58.7776  58.7846  58.8133  58.7644  58.7739  59.0995  59.1236  59.1400  59.6730  59.9318  59.9311  59.9437  59.9996  59.9798  59.9804  59.9560  59.9609  60.0838  60.1817  59.7242  58.8129  58.2246  59.7825  58.8931  58.8716  58.8995  58.8968  58.9312  59.8287  59.8500  59.8532  59.8527  59.8600  60.0165  60.4952  60.4341  60.4298  60.4151  60.4265  60.4109  60.5470  61.0965  61.0279  60.9104  61.0530  61.0708  61.0433  61.0314  61.0376  61.1580  61.2350  61.3671  61.2053  61.0354  61.1404  61.1504  61.1214  60.9557  61.0759  60.9582  60.9595  60.6605  59.8960  58.2341  57.8442  57.8312  57.8178  57.8281  57.7736  57.8057  59.0285  59.4377  58.4215  57.6112  57.5605  57.4537  57.4930  57.4360  57.4057  57.4393  57.4501  57.4926  58.7550  69.4369  57.2021  56.1688  55.9974  55.6675  56.2073  54.8529  54.2271  54.0603  54.2511  54.0960  53.7808  53.7212  53.6748  54.4054  53.6837  53.6393  53.6558  54.3532  54.9291  56.3641  57.4251  57.8439  57.9956  57.9170  60.2591  69.9049  59.0705  58.8809  58.8517  58.8251  58.8290  58.7785  58.8301  58.7683  58.6216  58.4355  58.4291  58.3904  58.1753  57.8469  57.7799  57.6536  57.5845  57.6123  57.5740  57.6919  57.6857  57.2267  57.6798  57.2267  57.6663  57.7046  57.8417  57.7678  57.7727  57.8831  57.9025  57.9296  57.8968  57.9743  58.0037  58.0083  58.1058  58.1174  58.0739  58.5062  58.6252  58.6574  58.8377  58.7019  59.3829  58.9818  59.9911  59.6674  59.6732  59.9409  59.9225  59.9941  60.1881  60.6198  60.6626  60.6632  60.5876  60.5063  60.4708  61.3475  61.5026  61.4833  61.4895  61.7732  61.8493  61.9306  62.1394  62.1100
-9999.0000  -9999.0000  -9999.0000  -9999.0000  -9999.0000  -9999.0000  -9999.0000  -9999.0000  -9999.0000  -9999.0000  -9999.0000  -9999.0000  -9999.0000  -9999.0000  -9999.0000  -9999.0000  -9999.0000  -9999.0000  -9999.0000  -9999.0000  -9999.0000  -9999.0000  -9999.0000  -9999.0000  -9999.0000  -9999.0000  -9999.0000  64.8350  65.7046  68.2812  69.2711  70.1288  70.5273  70.6482  70.2100  69.7717  70.9995  72.1073  73.0893  73.5992  73.5771  73.6972  73.7196  73.0577  73.3066  72.7211  71.7622  72.2600  71.9889  71.0327  68.7710  68.9718  66.7183  64.2350  63.2547  63.1507  63.1775  62.8628  61.6521  60.8164  60.8178  60.8467  60.8337  60.7572  60.6369  60.5886  60.7040  60.1799  59.8590  59.8818  59.8644  59.8678  59.8404  59.7474  59.6891  59.7145  59.7197  59.6816  59.5956  59.6118  59.5646  58.9042  59.0798  59.0753  59.0868  59.0654  59.0587  59.0897  59.1068  59.0554  58.9979  59.0793  59.0682  59.1804  58.9549  58.6741  71.8543  70.3077  57.7745  57.6345  57.6527  59.2004  72.0271  60.9369  59.4831  58.7907  58.8144  58.8080  58.7894  58.7709  58.7925  58.7780  58.7952  58.7864  58.7764  58.7696  58.7719  58.7847  58.7876  58.7991  58.6707  58.7044  58.9335  59.1106  59.5221  59.9300  59.9376  59.9269  59.9758  59.9982  59.9667  59.9664  59.9678  59.9924  60.0000  60.0326  60.0466  59.7831  59.2737  59.2404  58.9242  58.8805  58.8853  58.9464  59.7789  59.8500  59.8544  59.8451  59.8632  59.8600  60.4804  60.4893  60.4899  60.4859  60.4832  60.2772  60.2929  60.8327  61.0965  61.0746  60.8888  60.9949  61.0613  61.0142  61.0332  61.0384  61.3174  61.5697  61.6244  61.0866  61.1767  61.1509  61.2006  61.0764  61.1024  60.9677  61.0116  60.9077  60.0370  59.1823  57.8397  57.8495  57.8102  57.7715  57.8107  57.7848  57.7867  58.8596  59.4903  58.3633  57.6171  57.5565  57.4316  57.4301  57.3991  57.4217  57.4612  57.4555  57.4524  58.4323  69.8229  57.8926  56.3336  55.9976  55.6744  56.2174  55.3859  54.3963  54.0544  54.3919  54.1639  53.9087  53.9018  53.7522  53.9765  53.7633  53.6570  53.6749  53.8317  54.4021  56.0558  57.8041  57.7778  57.9705  57.7973  60.1291  70.0679  59.1679  58.9590  58.9166  58.8854  58.9186  58.8699  58.7894  58.5675  58.3575  58.2890  58.2385  58.0315  57.7533  57.7779  57.8288  57.7121  57.6354  57.6553  57.8274  57.6555  57.8213  57.6990  57.5209  57.6580  57.3208  57.6408  57.7797  57.7875  57.8054  57.7489  57.8437  57.9154  57.9128  57.9251  57.9211  57.9166  57.9605  58.0382  58.0461  58.1794  58.2010  58.4460  58.4681  58.6483  60.4851  60.7314  59.9659  59.0409  58.8501  58.9710  59.1661  59.2722  59.4790  59.4509  59.3123  59.3350  59.6850  59.7572  60.6661  60.7927  60.6796  60.6536  61.9730  61.9095  61.8641  62.2702  62.3158  62.2094
-9999.0000  -9999.0000  -9999.0000  -9999.0000  -9999.0000  -9999.0000  -9999.0000  -9999.0000  -9999.0000  -9999.0000  -9999.0000  -9999.0000  -9999.0000  -9999.0000  -9999.0000  -9999.0000  -9999.0000  -9999.0000  -9999.0000  -9999.0000  -9999.0000  -9999.0000  -9999.0000  -9999.0000  -9999.0000  -9999.0000  66.1106  66.0938  68.3101  70.1671  70.7170  71.2576  71.8468  72.0179  71.5219  71.4074  72.1296  73.0628  73.9115  74.4524  74.5963  74.8928  74.7953  73.9966  74.1616  73.7534  72.9209  73.4978  72.8172  72.6215  71.0893  70.6445  69.2809  65.5549  63.1582  63.1723  63.1380  63.1488  62.7285  61.4149  60.8336  60.8293  60.8056  60.7926  60.7542  60.7333  59.9968  59.8732  59.8653  59.8633  59.8618  59.8171  59.8166  59.7035  59.6711  59.6955  59.6959  59.6168  59.4203  59.4627  59.4539  59.0751  59.0864  59.0773  59.0764  59.0600  59.0629  59.1032  59.0559  59.0053  58.9973  58.9997  59.0408  59.3574  59.5589  61.2089  72.3740  58.6809  57.6762  57.6375  58.1350  70.9504  71.9132  61.0173  58.7263  58.8314  58.7705  58.7949  58.7959  58.7832  58.7827  58.7804  58.7925  58.7901  58.7787  58.7764  58.7886  58.7868  58.7882  58.8085  58.7782  58.5538  58.7157  59.1736  59.9136  59.9300  59.8820  59.9653  59.9705  59.9968  59.9900  59.9775  59.9905  59.9951  59.9935  59.9936  60.1193  60.1662  60.4626  59.1209  58.9336  58.8825  58.8724  59.6167  59.8505  59.8532  59.8756  59.8563  59.8682  60.2107  60.4818  60.4871  60.5051  60.5352  60.4786  60.2087  60.3052  60.6344  60.9950  61.0569  60.9636  60.9844  61.0100  61.0199  61.0213  60.9727  61.7899  61.4808  61.1763  61.1063  60.9645  61.0897  61.1278  60.9310  61.0228  60.9802  60.9855  60.5861  59.4676  57.7614  57.8491  57.8030  57.8120  57.8232  57.8021  57.7928  57.7938  58.7230  59.4749  58.3248  57.6194  57.5198  57.4636  57.3891  57.3915  57.4445  57.4426  57.4187  57.4237  58.0715  70.1515  58.2996  56.5209  55.9402  55.6720  56.0528  55.5519  54.1902  54.2072  54.4700  54.2356  53.9668  53.8450  53.9279  54.0060  53.7166  53.6711  53.6729  53.6801  54.1652  56.0572  57.7976  57.8171  57.8587  57.7773  59.7901  70.2007  59.3719  59.0409  59.0215  58.9564  58.9504  58.7615  58.4814  58.0859  58.1225  58.1204  57.9413  57.7754  57.8494  57.9036  57.8625  57.7644  57.6816  57.7460  57.6601  57.8253  57.7798  57.6528  57.7115  57.7523  58.5692  57.2748  58.0467  57.8269  57.8436  57.8371  57.8509  57.9722  57.9269  57.9284  57.9625  57.9405  57.9794  57.9239  58.0585  58.1766  58.2453  58.4157  58.5223  58.5981  60.6648  60.5673  59.8770  59.1302  58.9553  59.0265  58.9801  59.0707  59.1122  59.2686  59.3233  59.3146  59.6035  59.7390  59.8266  60.0174  60.0922  60.6741  62.1987  62.2663  62.2888  61.9642  62.5416  62.4186
-9999.0000  -9999.0000  -9999.0000  -9999.0000  -9999.0000  -9999.0000  -9999.0000  -9999.0000  -9999.0000  -9999.0000  -9999.0000  -9999.0000  -9999.0000  -9999.0000  -9999.0000  -9999.0000  -9999.0000  -9999.0000  -9999.0000  -9999.0000  -9999.0000  -9999.0000  -9999.0000  -9999.0000  -9999.0000  66.2976  66.5926  68.9438  70.3543  70.9505  71.6376  72.3990  73.0893  73.2527  73.1300  72.9378  73.2435  74.2516  74.7712  75.2482  75.8525  76.2535  75.5015  75.0593  75.3016  74.8000  74.7108  74.5424  74.0139  73.9699  72.0188  70.6382  70.2885  68.1511  64.5182  63.1469  63.1587  63.1653  62.8038  61.5842  60.9829  60.8264  60.8110  60.7715  60.6549  60.0804  60.0234  59.8614  59.8397  59.8500  59.8433  59.8254  59.8261  59.6506  59.6851  59.6713  59.6609  59.6238  59.3525  59.5458  59.5335  59.1836  59.0155  59.0877  59.0849  59.0611  59.0982  59.0729  59.0022  58.9933  58.9845  58.9773  58.9883  59.1497  60.5391  72.4199  70.2190  57.6597  57.6801  57.7154  59.1567  72.1197  61.0361  59.5857  58.7645  58.8402  58.8014  58.9299  58.8045  58.8013  58.7908  58.7864  58.8025  58.7775  58.7836  58.7818  58.7805  58.7982  58.8063  58.7884  58.7953  58.7501  58.9061  59.7463  59.8463  59.9208  59.9687  59.9956  59.9858  59.9918  59.9932  59.9645  59.9711  59.9982  60.0152  60.0371  60.1391  60.2009  60.1107  59.8011  59.2612  58.8682  59.2374  59.8449  59.8504  59.8625  59.8482  59.8454  60.1929  60.4833  60.4847  60.5182  60.5204  60.5275  60.5215  60.4581  60.2314  60.4837  60.8811  61.1084  61.0083  60.9864  61.0171  61.0307  61.0615  61.7439  60.7755  60.9353  61.1015  61.0227  60.9998  60.9169  60.7692  60.3718  60.3105  60.6775  60.6997  60.7476  57.6432  57.7905  57.7909  57.8589  57.8378  57.8373  57.8213  57.8173  57.8753  58.7657  59.6328  58.8784  57.6430  57.5103  57.4270  57.4385  57.5012  57.4557  57.5328  57.5201  57.6041  58.1427  70.1855  58.7542  56.7849  55.8544  55.6637  55.9935  55.5954  54.1313  54.4870  54.5402  54.3796  54.1329  53.9121  53.9228  53.8351  53.8182  53.7223  53.6847  53.6609  53.6938  55.4684  57.6425  57.8456  57.8331  57.7772  59.4776  70.3761  59.4245  59.1025  59.0653  59.0063  59.0142  58.5658  58.2089  58.2082  58.1443  57.9440  57.9092  57.9335  57.9013  57.9105  57.9303  57.7965  57.7612  57.7291  57.7499  57.5702  57.6891  57.6769  57.6814  57.7056  57.6552  58.6561  57.8233  58.4153  57.8778  57.8316  57.8845  57.8173  57.9861  57.9431  57.9597  57.9552  57.9480  57.9413  58.0690  58.1752  58.1493  58.3920  58.5891  58.3656  59.6442  59.9616  59.5615  59.0519  58.9848  59.0208  59.0612  59.0524  59.0534  59.2611  59.3393  59.3106  59.6085  59.7340  59.8998  60.0946  60.0588  60.4727  61.9199  62.2606  62.0647  62.0722  62.6463  62.4239
-9999.0000  -9999.0000  -9999.0000  -9999.0000  -9999.0000  -9999.0000  -9999.0000  -9999.0000  -9999.0000  -9999.0000  -9999.0000  -9999.0000  -9999.0000  -9999.0000  -9999.0000  -9999.0000  -9999.0000  -9999.0000  -9999.0000  -9999.0000  -9999.0000  -9999.0000  -9999.0000  -9999.0000  66.1801  67.1710  70.3033  71.2470  71.6262  71.9196  72.6294  73.5182  74.2818  74.5838  74.4511  73.9711  74.4766  75.0282  75.6692  76.3093  77.1598  77.4009  76.4690  75.8451  76.6552  75.7154  75.3194  75.4347  74.6101  74.7917  73.6946  71.1127  70.5176  68.8833  65.8708  63.6384  63.0932  62.6923  62.5883  61.7787  61.0722  60.8199  60.7726  60.6319  60.5899  60.4042  59.8649  59.8122  59.8254  59.8413  59.8300  59.8175  59.7837  59.6597  59.6736  59.6533  59.6615  59.6532  59.5880  59.5822  59.5760  59.4136  59.0754  59.2978  59.0636  59.0766  59.0901  58.9904  59.0011  58.9856  58.9669  58.9685  58.9845  59.0332  71.0310  71.7681  58.5187  57.7078  57.6633  58.0856  61.0377  72.3411  60.5305  58.4939  58.8355  58.8312  58.8770  58.8326  58.9135  58.9076  58.7964  58.7938  58.7909  58.7765  58.7744  58.7812  58.7924  58.8000  58.7694  58.7919  58.7833  58.8995  59.5439  59.7154  59.7550  59.9094  60.0071  59.9968  60.0064  59.9944  59.9916  59.9477  59.9800  59.9930  60.0457  60.1422  60.1543  60.2659  59.4002  60.0644  59.8588  59.4660  59.8691  59.8314  59.8380  59.8437  59.8498  59.9674  60.4747  60.4832  60.4836  60.5329  60.5264  60.5175  60.5143  60.5226  60.5117  60.5269  60.6402  60.9640  61.0141  61.0043  61.4534  60.9844  61.2330  60.7096  60.7613  61.3494  60.8062  61.0096  60.8580  60.8076  60.6258  59.5314  59.0243  59.1048  59.0754  58.2457  58.2058  58.2803  58.0187  57.9189  57.8715  57.7914  57.8309  57.7970  57.8695  58.1409  59.7134  58.1245  57.5590  57.4876  57.5888  57.6970  57.6479  57.6021  57.5038  57.4841  57.5718  57.8196  69.7969  58.9448  57.1034  55.8076  55.5455  55.9966  55.4300  54.0347  54.5300  54.5961  54.4744  54.1928  54.0227  53.9294  53.8794  53.7836  53.6891  53.6949  53.6898  53.7105  55.5031  57.5888  57.8542  57.8074  57.8141  59.0493  70.2861  59.3717  59.1392  59.1021  59.0419  59.0104  58.6462  58.3462  58.1255  58.0147  58.0752  58.0569  57.9814  57.8382  57.8974  57.9228  57.8448  57.7937  57.8405  57.6954  58.1611  57.6257  57.6578  57.6711  57.6902  57.6837  57.6887  58.5218  57.8172  57.8766  58.6327  57.8607  57.7323  57.9676  57.9887  57.9903  57.9541  57.9958  57.9908  58.0698  58.1393  58.1297  58.5262  58.6396  58.2360  59.2919  59.5412  59.2959  58.9296  58.9761  59.0090  59.0776  59.0588  59.0869  59.2703  59.3475  59.3788  59.6119  59.7032  59.8552  60.0865  60.1410  60.3117  61.7603  62.0582  61.8675  62.3338  62.6621  62.4509
-9999.0000  -9999.0000  -9999.0000  -9999.0000  -9999.0000  -9999.0000  -9999.0000  -9999.0000  -9999.0000  -9999.0000  -9999.0000  -9999.0000  -9999.0000  -9999.0000  -9999.0000  -9999.0000  -9999.0000  -9999.0000  -9999.0000  -9999.0000  -9999.0000  -9999.0000  -9999.0000  66.4487  66.8745  70.4044  71.6466  72.2510  72.5296  72.8284  73.6196  74.5886  75.3370  75.7342  75.6011  75.2827  75.2273  75.8303  76.5794  76.9928  78.1281  78.4365  77.3968  76.9016  76.8374  76.7732  76.7030  76.3600  75.8510  75.6158  73.8256  71.4411  70.6626  70.1385  67.2295  62.8021  62.6368  62.5891  62.6020  62.5401  61.6173  60.7540  60.6877  60.6876  60.6756  60.2574  59.8801  59.8566  59.8506  59.8493  59.8190  59.8238  59.7897  59.6466  59.6599  59.6407  59.6818  59.6631  59.5281  59.5677  59.8075  60.5460  60.4214  59.9616  60.1534  59.1384  59.0356  59.0032  58.9928  58.9720  58.9600  58.9685  58.9946  59.7953  72.5324  59.8056  58.0301  57.6516  57.7668  59.5443  71.7118  71.3274  59.4823  58.8205  58.8254  58.8406  58.8365  58.8627  59.0279  58.9241  58.7950  58.7907  58.7874  58.7879  58.7803  58.7900  58.8022  58.7767  58.7860  58.7785  58.8308  59.2260  59.7305  59.7254  59.7472  59.9520  59.9813  59.9980  59.9962  59.9844  59.9703  59.9564  59.9653  60.0123  60.1397  60.1403  60.1382  60.8959  60.3584  60.0426  60.0521  60.0676  59.9605  59.8354  59.8509  59.8692  59.9447  60.3415  60.4894  60.4897  60.5098  60.5218  60.5153  60.5140  60.5165  60.5400  60.5295  60.5361  60.5527  60.7043  60.8992  61.0695  61.2600  60.6913  60.6377  60.7405  60.7452  60.7824  60.8047  60.9637  60.8959  60.7168  60.6611  59.9034  58.9745  58.9588  57.6479  57.5754  57.6587  57.6448  57.7351  57.8378  57.7630  57.7595  57.7982  57.7586  57.7735  58.0285  59.8336  57.7972  57.6905  57.6680  57.7468  57.7984  57.7304  57.5930  57.4283  57.4195  57.5038  57.6732  69.3061  69.3422  57.3217  55.8158  55.6739  55.9176  55.7089  54.0224  54.4541  54.6136  54.4863  54.2801  54.1894  54.0504  53.8281  53.8866  53.6867  53.6870  53.6970  53.5073  55.3594  57.1456  57.6683  57.7101  57.7692  58.8292  70.5743  59.3943  59.0822  58.8879  58.9045  58.9709  58.6867  58.3716  58.1642  58.1785  58.1139  58.0661  57.9333  57.8790  57.9315  57.9220  57.8897  57.8426  57.6989  57.9995  58.1771  57.5366  57.6617  57.6854  57.6897  57.7143  57.7056  57.7695  57.7435  58.0449  57.8036  58.1326  57.8011  57.7221  57.9257  57.9684  57.9481  57.9983  57.9857  58.1075  58.1710  58.0808  58.4650  58.5586  58.3890  59.2238  59.4523  59.2081  58.9540  58.9594  59.0506  59.0572  59.1090  59.0562  59.2414  59.4071  59.5082  59.6391  59.6611  59.8316  60.0887  60.1368  60.6288  61.7263  61.9748  61.7479  62.3266  62.6079  62.3947
-9999.0000  -9999.0000  -9999.0000  -9999.0000  -9999.0000  -9999.0000  -9999.0000  -9999.0000  -9999.0000  -9999.0000  -9999.0000  -9999.0000  -9999.0000  -9999.0000  -9999.0000  -9999.0000  -9999.0000  -9999.0000  -9999.0000  -9999.0000  -9999.0000  -9999.0000  -9999.0000  67.1364  69.1494  71.7438  72.5464  73.3101  73.6329  73.7458  74.6343  75.6325  76.3025  76.6251  76.5793  76.3183  76.1370  76.7284  77.8316  78.8456  79.2260  79.4340  79.4668  79.2083  78.0069  76.9742  77.0876  76.4154  76.3982  76.1972  74.2880  71.7439  70.6154  70.3122  68.0862  64.1612  62.5916  62.5705  62.5902  62.5713  61.7872  60.8846  60.6845  60.6722  60.6718  60.5304  59.9064  59.8311  59.8245  59.8522  59.8170  59.8489  59.7607  59.6515  59.6474  59.6243  59.6435  59.6661  59.5325  59.6098  59.6180  59.6988  60.0011  59.8075  60.0182  60.3113  59.0165  58.9903  58.9900  58.9578  58.9622  58.9837  59.2374  70.7927  71.4178  58.5702  57.7744  57.6613  57.9412  71.1825  71.4019  59.2793  58.3807  58.8369  58.8462  58.8552  58.8369  58.8526  58.9178  59.0981  59.0211  58.7747  58.7848  58.7874  58.7922  58.7910  58.7951  58.7610  58.7783  58.7832  59.4138  59.6951  59.7297  59.7310  59.8521  60.0991  59.9995  59.5914  59.9736  60.0085  59.9969  59.9899  59.9881  60.0463  60.1345  60.1360  60.2707  61.1204  60.1658  60.0373  60.0410  60.0685  60.0800  60.2127  60.1223  59.9449  60.3086  60.4899  60.5138  60.5185  60.5255  60.5290  60.5345  60.5437  60.5477  60.5478  60.5423  60.5592  60.9153  61.4058  61.4375  61.0006  60.6379  60.6143  60.6422  60.7383  60.7355  60.7422  61.0066  60.8361  60.8681  60.6610  60.5215  59.9597  59.0968  58.6988  57.4585  57.5775  57.4760  57.4941  57.7618  57.7956  57.7498  57.7352  57.8291  57.8401  57.9583  57.8771  59.7383  58.0313  57.6093  57.6247  57.7320  57.7412  57.7863  57.5816  57.3731  57.4306  57.4329  57.5923  59.2207  69.0571  57.8094  56.0602  55.7899  55.9944  55.8127  53.8551  54.3373  54.7489  54.4975  54.3073  54.3236  54.0551  53.9417  53.8180  53.7104  53.7003  53.6757  53.5353  54.9733  56.6919  57.4803  57.6864  57.8009  58.4999  70.6599  59.4013  58.5081  58.3156  58.7263  58.7451  58.7906  58.4580  58.1822  58.1672  58.0801  58.0324  57.9714  57.9570  57.9979  57.9399  57.9085  57.7428  57.8586  57.9706  58.4256  57.4284  57.5869  57.6571  57.7133  57.7189  57.7656  57.7658  57.7476  57.7906  57.8493  58.1056  57.8115  57.7830  57.9967  57.9746  57.9620  57.9682  58.0645  58.1487  58.2386  58.0869  58.4192  58.5211  58.5619  59.1437  59.4199  59.2191  58.9316  59.0078  59.0654  59.0657  59.1361  59.0686  59.3310  59.3906  59.4744  59.6254  59.6658  59.7738  60.1528  60.0657  61.3073  61.7696  61.7181  61.7437  62.2064  62.5795  62.3536
-9999.0000  -9999.0000  -9999.0000  -9999.0000  -9999.0000  -9999.0000  -9999.0000  -9999.0000  -9999.0000  -9999.0000  -9999.0000  -9999.0000  -9999.0000  -9999.0000  -9999.0000  -9999.0000  -9999.0000  -9999.0000  -9999.0000  -9999.0000  -9999.0000  -9999.0000  66.9164  67.8578  70.2512  72.2108  73.2724  74.2934  74.8485  75.0567  75.5070  76.5930  77.2792  77.6260  77.6320  77.6005  77.4336  77.6904  79.2990  79.8485  79.4160  79.2536  79.2933  79.2793  78.4639  77.4595  76.8978  76.3062  75.6534  74.6904  73.6655  72.2713  70.2965  68.5743  66.5541  64.4129  62.6975  62.5675  62.5975  62.5764  62.4793  60.9928  60.6711  60.6638  60.6755  60.6923  60.3188  59.8904  59.8661  59.8304  59.8172  59.8193  59.7052  59.6595  59.6649  59.6391  59.6333  59.6728  59.6016  59.6115  59.6191  59.6308  60.0825  60.9631  60.4461  60.2316  60.0644  59.0230  58.9922  58.9697  58.9810  59.0135  60.1678  71.4749  60.2105  58.1196  57.7827  57.9837  58.9943  72.7859  60.1770  58.6339  58.7124  58.8463  58.8358  58.8584  58.8625  58.8448  58.8655  58.8932  59.3130  59.4843  58.9968  58.7962  58.7948  58.7716  58.7675  58.7847  58.7895  59.0153  59.6760  59.7242  59.7322  59.9402  60.1037  60.1153  60.1120  60.1661  60.1744  59.9913  60.0120  60.0055  60.1021  60.1343  60.1200  60.1309  60.4615  60.8815  60.0696  60.0680  60.0333  60.0555  60.0832  60.0974  60.4139  60.6145  60.4887  60.5055  60.5202  60.5200  60.5163  60.5282  60.5691  60.5859  60.5919  60.9514  61.3270  61.3658  61.0559  60.7109  60.6469  60.6151  60.6160  60.6185  60.6811  60.7321  60.7350  60.9108  61.3399  60.8169  60.8140  60.8322  60.6159  59.8518  59.0546  58.9986  57.3977  57.4178  57.4939  57.6041  57.7377  57.8237  57.7290  57.7488  57.8698  57.8640  58.0281  57.8597  59.5390  58.2494  57.5692  57.6732  57.7117  57.7955  57.7814  57.5624  57.3552  57.4068  57.4048  57.8691  58.5032  68.8948  58.0945  56.0714  55.8985  56.0221  55.5931  54.2077  54.4792  54.4406  54.3965  54.4256  54.2980  54.1710  54.0584  53.9041  53.7163  53.6892  53.7061  53.7164  54.9045  56.7948  57.4366  57.5844  57.7883  58.2450  71.1619  59.1396  58.4281  58.3363  58.3784  58.6862  58.7956  58.5698  58.2296  58.2134  58.0959  58.0492  57.9573  58.0290  57.9798  57.9561  57.8827  57.9218  57.9062  57.9806  58.5356  57.0108  57.5328  57.6675  57.6842  57.7208  57.7394  57.7249  57.7841  57.8729  57.8186  57.6538  57.9731  58.0526  57.9936  57.9761  57.9576  57.9962  58.0993  58.1226  58.1450  58.1675  58.4374  58.4076  58.6938  59.2519  59.4239  59.2322  58.9564  58.9305  59.1270  59.0853  59.0901  59.1920  59.3528  59.4033  59.4808  59.6428  59.6615  59.6992  60.1199  60.0391  61.4758  61.6347  61.7010  61.8383  62.1297  62.5920  62.4143
-9999.0000  -9999.0000  -9999.0000  -9999.0000  -9999.0000  -9999.0000  -9999.0000  -9999.0000  -9999.0000  -9999.0000  -9999.0000  -9999.0000  -9999.0000  -9999.0000  -9999.0000  -9999.0000  -9999.0000  -9999.0000  -9999.0000  -9999.0000  -9999.0000  66.5723  68.4796  68.7686  71.3052  72.6382  73.9037  75.2585  76.6092  76.2712  76.5690  77.3701  78.6180  79.9491  79.2945  79.0817  79.1465  79.6779  79.4767  79.1394  78.4035  78.1024  77.9907  78.3646  77.1407  76.4830  75.9279  75.3028  74.5249  73.9381  72.0857  69.3308  68.0730  66.7566  65.6174  64.5641  63.1106  62.6116  62.6055  62.5102  62.2845  60.8758  60.6663  60.6516  60.6743  60.6832  60.2199  59.8711  59.8748  59.8669  59.8489  59.8219  59.6663  59.6516  59.6525  59.6671  59.6542  59.5316  59.6179  59.5927  59.6009  59.6100  59.6068  59.8750  60.4545  60.3903  60.9478  60.8347  59.6766  59.0149  58.9828  59.2647  71.5463  71.6396  58.8409  57.8921  57.7463  58.2197  70.6386  71.8190  59.0366  58.8401  58.8495  58.8637  58.8442  58.8646  58.8740  58.8600  58.8569  58.8590  58.8510  58.8600  58.8584  58.8604  58.8100  58.7589  58.7518  58.7482  59.1475  59.7025  59.7251  59.7150  59.7969  60.0807  60.0989  60.0921  60.2214  60.3930  60.3888  60.3514  60.1129  59.9881  60.1501  60.1223  60.1086  60.1238  60.0407  59.9228  60.6489  60.0722  60.6046  60.0731  60.3847  60.0793  60.1076  60.1491  60.3930  60.5215  60.5854  60.5328  60.9509  60.5466  60.8987  61.3917  61.2752  61.0885  60.9282  60.6899  60.6895  60.6741  60.6018  60.6211  60.6316  60.5953  60.6328  60.7011  60.7072  60.8258  61.2128  60.8226  60.9431  60.7715  60.6500  59.6570  59.0167  59.0592  57.7503  57.4828  57.6068  57.5100  57.7019  57.8191  57.7225  57.6829  57.8307  57.9187  57.9920  57.8726  59.3636  58.5624  57.6739  57.6626  57.6962  57.8119  57.8370  57.4628  57.3668  57.4120  57.4450  57.8504  58.2613  68.9199  58.5697  56.1232  55.9041  56.1192  55.5352  54.9294  54.1923  54.3328  54.5245  54.4575  54.2860  54.2497  54.1209  54.0143  53.6978  53.7042  53.7164  53.7150  54.9944  56.3982  57.2816  57.4605  57.6915  57.9221  71.1998  59.1294  58.4166  58.3845  58.3817  58.5676  58.5351  58.4937  58.3514  58.2194  58.0672  58.0605  58.0837  58.0255  58.0134  57.9402  57.9419  57.9599  57.9260  57.9620  58.5577  57.2417  57.5035  57.6653  57.6533  57.6713  57.6708  57.6783  57.7676  57.8226  57.8223  57.8574  58.1354  58.5515  58.0167  57.9909  57.9692  57.9864  58.0663  58.1547  58.1408  58.2653  58.4166  58.4211  58.7671  59.2421  59.4061  59.3052  59.0915  58.9397  59.2396  59.1370  59.1387  59.2406  59.4662  59.4564  59.4858  59.6429  59.6265  59.6430  60.0449  60.0285  61.0517  61.4559  61.7815  61.7116  61.9417  62.6130  62.3912
-9999.0000  -9999.0000  -9999.0000  -9999.0000  -9999.0000  -9999.0000  -9999.0000  -9999.0000  -9999.0000  -9999.0000  -9999.0000  -9999.0000  -9999.0000  -9999.0000  -9999.0000  -9999.0000  -9999.0000  -9999.0000  -9999.0000  -9999.0000  68.6029  68.8174  69.0720  70.1193  71.7694  72.9782  74.1874  76.6655  78.7919  78.1173  78.4503  79.7716  81.0821  81.3176  79.9088  79.4795  79.5497  79.4416  79.1162  78.2140  77.0188  76.4033  76.4847  76.6094  76.0897  75.5423  74.8688  74.3597  73.7684  72.0401  69.6697  68.4509  67.2003  66.0986  65.2192  64.2467  63.7305  62.8031  62.4125  62.1857  62.0307  61.3096  60.6783  60.6779  60.6798  60.5269  60.5430  59.7590  59.9854  60.0322  59.8731  59.7293  59.6753  59.6556  59.6858  59.6787  59.6504  59.3521  59.6133  59.5901  59.6164  59.6100  59.5963  59.6244  59.7278  59.8610  60.0769  60.4801  60.9857  59.8819  59.0063  60.0759  72.3783  59.5800  57.9559  57.6793  57.7349  59.0805  72.2892  59.8772  58.2399  58.8649  58.8792  58.8742  58.8842  58.8777  58.8715  58.8626  58.8508  58.8521  58.8563  58.8624  58.8554  58.8492  59.0231  58.9091  58.7509  58.8277  59.5149  59.7313  59.7137  59.7197  60.0240  60.1039  60.0911  60.0936  60.3024  60.3916  60.3944  60.3921  60.3742  60.2437  60.1659  60.1298  60.1187  60.2182  59.9508  61.0945  61.6777  60.3602  61.6097  60.4851  61.6594  60.5027  61.6343  60.6836  61.2783  60.7827  61.3144  60.6900  61.5509  61.3591  60.8610  60.8392  60.8816  60.8010  60.6932  60.6842  60.6911  60.6143  60.6117  60.6208  60.6267  60.6012  60.6051  60.6592  60.7243  60.8007  60.9581  60.9196  60.8337  60.8949  60.4516  60.0464  58.9898  59.0834  57.7895  57.4443  57.5050  57.5893  57.6870  57.8244  57.7132  57.6831  57.7760  57.8598  58.0044  57.8932  59.1481  58.7922  57.6368  57.6241  57.7019  57.8408  57.8574  57.4794  57.3881  57.4421  57.4360  57.7655  57.8906  69.0896  69.8579  56.3385  55.9096  56.0084  55.6019  55.1720  54.2986  54.2959  54.4725  54.4885  54.3167  54.2478  54.1335  54.0120  53.6666  53.7662  53.7128  53.7352  54.5346  55.8205  57.0956  57.5064  58.1751  57.7785  70.8742  59.3207  58.3689  58.3745  58.3635  58.4037  58.4148  58.3802  58.2900  58.1696  58.1350  58.4510  58.1798  58.0470  58.0019  57.9913  57.9942  57.9421  57.9403  57.9228  58.4433  57.4689  57.3678  57.7783  57.6956  57.6857  57.7182  57.7086  57.7501  57.8067  57.9408  57.7824  58.6721  58.0569  58.8648  58.1210  58.1135  58.0881  57.9441  58.1846  58.1545  58.2986  58.4060  58.3638  58.6786  59.2848  59.3524  59.3490  59.1061  59.1154  59.1993  59.2069  59.1710  59.2806  59.4714  59.4492  59.4719  59.6873  59.6177  59.7524  60.0291  60.0022  60.7433  61.4294  61.7137  61.6578  62.1088  62.6302  62.4168
-9999.0000  -9999.0000  -9999.0000  -9999.0000  -9999.0000  -9999.0000  -9999.0000  -9999.0000  -9999.0000  -9999.0000  -9999.0000  -9999.0000  -9999.0000  -9999.0000  -9999.0000  -9999.0000  -9999.0000  -9999.0000  -9999.0000  68.7867  68.8000  68.8206  68.8114  68.5577  71.2755  73.0876  75.2359  78.5684  79.8247  80.3662  80.5720  81.4731  81.9263  80.2754  79.2416  78.2553  78.1883  78.3454  77.7950  76.7079  75.3376  74.5239  74.9640  75.4170  75.2317  74.5883  74.0551  73.3336  71.3242  69.3145  68.5469  67.4287  66.4312  65.3535  64.3569  64.0609  63.5386  62.4021  62.1585  62.1325  62.1699  62.0588  61.3140  60.6808  60.6953  60.6450  60.3250  59.6260  59.9554  59.9475  59.7562  59.7727  59.7624  59.6739  59.6886  59.6792  59.5015  59.5149  59.6073  59.6105  59.6133  59.6139  59.6265  59.6383  59.6323  59.6463  59.7533  59.7517  60.2837  61.2056  60.2435  71.5736  71.0696  58.5432  57.7368  57.6608  58.0881  71.3659  72.2050  59.2262  58.8555  58.8506  58.8601  58.8892  58.8802  58.8713  58.8533  58.8616  58.8568  58.8503  58.8658  58.8619  58.8857  58.8663  59.0108  59.2216  59.0997  59.4574  59.7386  59.7292  59.7126  59.8142  60.0985  60.1314  60.0858  60.3359  60.3839  60.3884  60.3801  60.4062  60.4071  60.3914  60.2616  60.1322  60.1576  60.1759  60.9153  61.0321  61.0854  60.7144  61.0008  60.7429  60.8541  60.7629  61.1229  60.7851  61.1307  60.8778  61.3265  60.9017  60.8216  60.8276  60.8201  60.8315  60.8495  60.8028  60.6816  60.6959  60.6645  60.5928  60.5904  60.6080  60.6223  60.5824  60.5847  60.6877  60.7145  60.7820  60.7899  60.8186  60.9475  60.7472  60.7557  59.9712  59.0373  58.9639  57.9955  57.5352  57.4810  57.5859  57.7206  57.8007  57.6886  57.6966  57.7355  57.8832  57.9428  57.8929  58.9218  59.0202  57.6607  57.5847  57.7007  57.8755  57.8502  57.4674  57.3811  57.4419  57.4389  57.4682  57.8452  59.2043  69.6224  56.3323  56.0084  55.8610  55.8709  55.4184  54.5742  54.2317  54.4839  54.5196  54.3302  54.3532  54.1568  53.9158  53.8742  53.8194  53.7266  53.7461  54.2455  55.7696  57.1899  57.4408  58.3833  57.7312  70.4255  59.4391  58.3717  58.3711  58.3799  58.3826  58.3768  58.3549  58.2242  58.2249  58.5227  58.4616  58.2216  57.9868  58.0512  58.0231  57.9978  57.9203  57.9627  57.9074  58.4636  57.5463  57.3977  57.9453  57.9913  58.0070  58.0858  58.0722  58.1460  58.0550  58.0036  58.0183  58.0910  58.4470  58.2782  58.3152  58.0071  58.0993  58.1632  58.1385  58.2167  58.3784  58.3864  58.3843  58.6344  59.1026  59.2317  59.3983  59.0112  59.0836  59.0757  59.1141  59.0782  59.2351  59.3792  59.4292  59.3603  59.6641  59.6538  59.9509  60.0685  60.0019  60.6706  61.4765  61.7935  61.6471  62.4333  62.6110  62.3378
-9999.0000  -9999.0000  -9999.0000  -9999.0000  -9999.0000  -9999.0000  -9999.0000  -9999.0000  -9999.0000  -9999.0000  -9999.0000  -9999.0000  -9999.0000  -9999.0000  -9999.0000  -9999.0000  -9999.0000  -9999.0000  69.5014  68.8586  68.7952  68.7654  68.8609  69.6184  71.4941  73.7989  76.1039  78.7119  80.1924  80.6926  81.1212  81.4281  81.3219  79.6316  77.5116  76.8755  76.2852  76.4585  76.2304  75.1367  73.9962  73.2417  73.6163  74.3797  74.2766  73.7205  73.1448  70.7637  69.2141  68.3905  67.3172  66.5651  65.4503  64.5195  64.1713  63.8887  63.5297  62.6416  62.1230  62.1388  62.1387  62.1428  62.0248  61.0238  60.6493  60.7079  60.1489  59.6561  59.6643  59.6108  59.5785  59.8475  59.6994  59.6469  59.8137  59.7972  59.5728  59.6161  59.6378  59.6324  59.6144  59.6479  59.6207  59.6441  59.6085  59.5905  59.6366  59.4188  59.0579  60.4783  62.0218  72.0016  59.5907  58.0643  57.6577  57.6586  59.1963  72.4293  60.3712  58.7604  58.8141  58.8233  58.8560  58.8716  58.9022  58.8394  58.8508  58.8678  58.8676  58.8642  58.8648  58.8587  58.8427  58.8256  58.8835  59.2515  59.8641  59.8646  59.7276  59.7091  59.8970  60.0934  60.0977  60.0800  60.1845  60.3867  60.3634  60.3745  60.3843  60.4127  60.3992  60.4349  60.2770  60.2185  60.1401  60.4606  61.7370  60.6478  60.6467  60.6047  60.6356  60.6421  60.6268  60.6492  60.6499  60.7862  60.8679  60.8097  60.8319  60.8184  60.8164  60.8183  60.8254  60.8284  60.8207  60.7446  60.6629  60.6522  60.6130  60.6110  60.5908  60.6112  60.6039  60.6096  60.6165  60.6677  60.7275  60.7254  61.0355  60.9413  60.8179  61.0135  60.7469  59.8772  58.9549  59.0164  58.1655  57.5624  57.5462  57.6836  57.7625  57.7680  57.5744  57.7556  57.8466  57.8040  57.9293  57.8027  58.6616  59.2707  57.6095  57.6619  57.5958  57.7367  57.6833  57.4113  57.3766  57.4061  57.4270  57.4177  57.7201  58.9770  69.8326  56.5102  56.0214  56.0250  56.1534  55.5802  54.8830  54.1891  54.4457  54.4616  54.3079  54.2004  54.1677  54.0138  54.0806  53.8217  53.7377  53.7592  54.0555  54.9252  57.0621  57.7442  57.7032  57.6814  70.0029  70.0093  58.3554  58.3772  58.3453  58.3444  58.3617  58.3335  58.3781  58.5599  58.5378  58.4125  58.1282  58.0249  58.0639  57.9881  58.0162  57.9748  57.9755  57.9571  58.4598  57.6632  57.4489  58.0595  58.0830  58.1451  58.1102  58.0945  58.2635  58.3421  58.3209  58.3997  58.2332  58.3357  58.2582  58.3520  58.3385  58.3787  58.3931  58.3882  58.4249  58.4436  58.6061  58.5902  58.5769  58.6720  58.8459  59.4782  59.2606  59.1133  59.3108  59.4848  59.7799  59.7941  59.6466  59.3656  59.5817  59.7249  59.8666  60.2082  59.9838  59.9523  60.5315  61.0012  61.4989  61.5697  62.4453  62.0426  61.6663
-9999.0000  -9999.0000  -9999.0000  -9999.0000  -9999.0000  -9999.0000  -9999.0000  -9999.0000  -9999.0000  -9999.0000  -9999.0000  -9999.0000  -9999.0000  -9999.0000  -9999.0000  -9999.0000  -9999.0000  72.5362  70.0501  68.8341  68.7863  68.7606  69.0807  69.7989  71.5391  74.0503  75.9710  77.7927  79.3157  80.2558  80.6676  80.8417  80.5879  78.7593  76.9264  75.6088  74.9649  74.6223  74.3179  73.8790  72.4622  72.0057  72.4844  73.4997  73.4138  72.2224  70.7384  69.5439  68.5258  67.4313  66.4262  65.6227  64.7141  64.3424  64.0263  63.8038  63.4278  63.1464  62.3796  62.1508  62.1367  62.1131  62.0431  60.7503  60.7074  60.6660  60.1343  59.6251  59.5929  59.5784  59.5674  59.5939  59.5858  59.5739  59.8193  59.5977  59.6041  59.9085  59.7325  59.6254  59.6838  59.6600  59.6442  59.6504  59.6280  59.5825  59.5991  59.5514  59.3270  59.0603  71.1426  70.1052  58.4971  57.6471  57.6355  58.0987  71.3706  71.8268  59.3217  58.9364  58.9345  58.8411  58.8483  58.8586  58.8476  58.8500  58.8611  58.8525  58.8574  58.8557  58.8611  58.8464  58.8134  58.8077  58.8449  58.9783  59.7064  60.1461  59.7080  59.6976  60.0921  60.1180  60.0963  60.1573  60.3592  60.3776  60.3698  60.3700  60.4061  60.4068  60.4084  60.3673  60.3189  60.2851  60.2068  61.3582  61.1969  60.6062  60.6112  60.6295  60.6301  60.6339  60.6379  60.6502  60.6829  60.8148  60.8082  60.8275  60.8323  60.8149  60.8127  60.8033  60.8055  60.8191  60.8347  60.7993  60.7089  60.6058  60.6233  60.6065  60.6041  60.6095  60.6238  60.6394  60.6093  60.7246  60.7412  60.7279  60.8545  60.8447  60.9450  61.0292  60.5285  59.9998  59.0553  58.9744  58.2093  57.4808  57.5191  57.6315  57.7423  57.8331  57.6094  57.7510  57.8206  57.8469  57.8000  57.6726  58.4016  59.4677  57.1306  57.2707  57.2236  57.5150  57.6399  57.5110  57.4183  57.4453  57.4446  57.4588  57.6519  58.9828  69.9288  56.9256  56.2173  56.2602  56.1769  55.6622  55.1143  54.5856  54.4943  54.4199  54.2856  54.2942  54.2245  54.2211  54.0061  53.8645  53.7635  53.7744  53.8710  54.6651  56.6817  57.6032  57.5063  57.7455  59.8122  70.0980  58.3563  58.3595  58.3014  58.3332  58.3134  58.5732  58.6047  58.5888  58.4943  58.3704  58.1962  58.0210  58.0073  57.9976  58.0625  57.9764  57.9743  58.0927  58.3926  57.8739  57.3669  58.0534  58.1741  58.2062  58.1088  58.0697  58.2407  58.3259  58.3412  58.3217  58.3639  58.2608  57.7861  58.3595  58.3299  58.3887  58.3922  58.3891  58.4066  58.5638  58.6534  58.6285  58.4944  58.6064  58.8423  59.6550  59.7134  59.7156  59.7429  59.9814  60.1537  59.9923  60.2632  60.3225  60.3559  60.3900  60.4398  60.1153  60.1963  60.2927  60.8256  61.8846  61.5387  61.5441  62.0319  61.0079  61.3093
-9999.0000  -9999.0000  -9999.0000  -9999.0000  -9999.0000  -9999.0000  -9999.0000  -9999.0000  -9999.0000  -9999.0000  -9999.0000  -9999.0000  -9999.0000  -9999.0000  -9999.0000  -9999.0000  -9999.0000  72.0827  71.5297  69.6831  68.7884  69.2498  68.8482  69.8284  70.1198  73.0717  75.0911  76.8418  78.8507  79.7576  80.2892  80.6787  80.5352  78.6404  76.6099  75.1645  73.7661  73.2389  72.4254  72.0176  71.3669  70.9241  71.4102  72.2050  72.3028  70.9479  70.0576  68.8896  67.7665  66.4199  65.5671  64.9501  64.4949  64.2149  63.9272  63.6252  63.2806  62.9461  62.1484  62.1613  62.1052  62.1031  62.0259  60.8732  60.6999  60.7282  60.6449  60.1028  59.5809  59.5693  59.5592  59.5758  59.5680  59.5675  59.5679  59.5620  59.6116  59.7367  59.6507  59.6844  59.8210  59.6793  59.6484  59.7337  59.6158  59.5735  59.5962  59.9004  60.0741  69.8402  69.1682  58.7799  57.6888  57.6554  57.8235  59.6130  72.5158  60.1577  58.2188  59.0704  59.0712  58.9431  58.6566  58.7710  58.8472  58.8476  58.8500  58.8444  58.8512  58.8452  58.8449  58.8511  58.8164  58.8578  58.9655  59.2353  59.2913  59.5265  59.3404  59.9067  60.1043  60.0990  60.1548  60.3415  60.3607  60.3759  60.3653  60.4188  60.4271  60.4261  60.3711  60.3474  60.3487  60.3442  60.6773  61.7576  60.6521  60.6084  60.6000  60.6245  60.6276  60.6416  60.6492  60.6674  60.6502  60.7775  60.8446  60.8174  60.7950  60.8184  60.8294  60.8173  60.8379  60.8104  60.8128  60.6681  60.6398  60.6502  60.6300  60.4439  60.6251  60.1695  60.5754  60.0819  60.3088  60.1989  60.6378  60.0826  60.9539  59.3724  59.3072  59.1907  58.9105  58.5355  57.8902  58.4992  57.6582  57.6457  57.6663  57.7239  57.7639  57.7248  57.6961  57.9686  58.0510  57.9527  57.9011  57.9743  58.8591  59.7704  57.6334  57.6678  57.5200  57.7576  57.7712  57.6026  57.4514  57.4673  57.4433  57.4673  57.5638  58.6686  69.6384  57.2436  56.4987  56.4553  56.3103  56.2382  55.2972  54.7350  54.5302  54.4166  54.2901  54.2793  54.2024  54.1810  54.0695  53.9582  53.6193  53.7891  53.7989  54.3828  56.6261  57.2164  57.3440  57.7304  59.2167  70.1377  58.3334  58.3316  58.2919  58.3501  58.3081  58.5654  58.6521  58.5904  58.5074  58.3770  58.2112  57.9919  57.9871  57.9926  57.9897  58.0035  57.9975  58.1182  58.3856  58.0024  57.3263  58.0628  58.1675  58.1857  58.1444  58.0818  58.2106  58.3110  58.2978  58.3834  58.3765  58.3410  58.2804  58.3263  58.3295  58.3832  58.3822  58.3844  58.4299  58.4810  58.6889  58.6754  58.6540  58.6118  59.0794  59.7284  59.7744  59.7754  59.8277  59.9786  60.2232  60.1650  60.2488  60.3667  60.4253  60.4106  60.3034  60.3749  60.3076  60.3329  60.9202  61.8646  61.8550  61.9749  61.6679  61.6050  61.7288
-9999.0000  -9999.0000  -9999.0000  -9999.0000  -9999.0000  -9999.0000  -9999.0000  -9999.0000  -9999.0000  -9999.0000  -9999.0000  -9999.0000  -9999.0000  -9999.0000  -9999.0000  -9999.0000  73.9318  73.2337  71.6891  69.7491  69.6834  69.8569  69.4632  69.9233  70.4401  72.8382  74.4753  76.0503  77.9879  79.0001  79.7505  80.8502  80.5609  79.1005  77.1096  75.3739  74.2095  72.7522  71.9743  71.2828  70.7473  70.0619  70.3563  69.8317  70.1977  70.0369  69.0984  68.0500  66.7835  65.8095  65.2814  64.8291  64.4057  64.1536  63.7484  63.5087  63.3590  62.9443  62.5525  62.1083  62.1033  62.1378  61.6700  60.8604  60.7401  60.7860  60.7804  59.6321  59.5884  59.6038  59.5803  59.5843  59.5715  59.5515  59.5371  59.6020  59.6198  59.6140  59.6469  59.6156  59.7096  59.6535  59.6620  59.8922  59.6279  59.5881  59.6981  60.1356  60.2223  72.2961  60.1629  57.9465  57.6499  57.6523  58.2986  71.2741  71.0722  59.5664  58.6613  59.0799  59.0864  59.0596  58.7488  58.4460  58.8473  58.8555  58.8549  58.8577  58.8347  58.8237  58.8346  58.8238  58.8346  58.9439  59.2417  59.2127  59.2258  59.2257  59.5836  59.4670  59.8063  60.1170  60.3088  60.3544  60.3787  60.3903  60.4151  60.4193  60.4230  60.3858  60.3464  60.3416  60.3374  60.3610  61.3289  61.6311  60.7825  60.6291  60.6321  60.6025  60.6294  60.6543  60.4784  60.6626  60.4524  60.6673  60.5503  60.7712  60.4732  60.6533  60.4723  60.3033  60.4676  60.4124  60.4664  59.9924  60.3460  59.6235  59.9106  59.5432  59.7347  59.5680  59.8490  59.3575  59.3763  59.3997  59.1623  59.2836  59.1407  58.1450  58.0326  58.1155  58.1971  57.9766  57.8659  57.7641  57.9039  57.6728  57.6788  57.7382  57.7056  57.7676  57.8383  58.0977  58.1506  58.0470  58.0158  58.1064  58.6958  60.0161  57.8985  57.7709  57.5870  57.7413  57.8172  57.6966  57.4711  57.4380  57.4480  57.4567  57.5103  58.6630  69.4176  57.6800  56.5157  56.3101  56.4911  55.9202  55.3193  54.6832  54.5276  54.4303  54.2733  54.2055  54.1803  54.1070  54.0518  53.8443  53.7569  53.8047  53.8091  54.5140  56.2928  56.8975  57.3393  57.7312  58.7357  70.4948  58.3195  58.2867  58.2908  58.3379  58.3119  58.6163  58.6554  58.5857  58.4982  58.3851  58.1101  58.0567  58.0122  58.0776  58.0844  58.0218  57.9903  58.1745  58.3748  58.1519  57.2946  58.0572  58.1986  58.2674  58.1834  58.1173  58.2833  58.3429  58.3270  58.3863  58.3868  58.2579  58.3360  58.1463  58.2859  58.3875  58.3742  58.4102  58.4288  58.5913  58.6352  58.6405  58.6009  58.5717  59.2056  59.6576  59.7245  59.8017  59.8225  59.9541  60.2225  60.0885  60.2464  60.2964  60.4066  60.4168  60.3460  60.3166  60.2379  60.3756  61.0106  61.8946  61.7892  61.6355  61.5432  61.5412  61.6336
-9999.0000  -9999.0000  -9999.0000  -9999.0000  -9999.0000  -9999.0000  -9999.0000  -9999.0000  -9999.0000  -9999.0000  -9999.0000  -9999.0000  -9999.0000  -9999.0000  -9999.0000  76.9028  74.1372  73.4831  72.2330  70.8652  69.9564  69.9545  69.9576  70.0331  70.9191  72.9795  73.8852  75.3791  76.5034  77.8911  79.1672  80.5117  80.9514  79.7655  77.9927  76.6361  75.5748  73.6634  72.1799  71.5445  70.7060  70.0513  69.4282  68.9474  69.0226  68.9020  68.0943  67.2062  66.2429  65.6055  65.3136  64.9171  64.7541  64.5793  64.3634  64.0687  63.9230  63.4913  62.9047  62.4069  62.1187  61.8931  60.9636  60.7531  60.7629  60.7691  60.5504  59.8086  59.5924  59.6003  59.5888  59.5739  59.5733  59.5373  59.5667  59.6866  59.6284  59.6335  59.6459  59.6321  59.6369  59.6258  59.6220  59.8020  59.6445  59.5972  60.3973  60.3352  60.8675  72.3818  58.9792  57.7125  57.6727  58.0350  59.7086  72.6803  60.0598  58.7627  59.0517  59.0688  59.0192  59.0561  59.0509  58.6588  58.9612  58.9770  58.8536  58.8484  58.8622  58.8144  58.8491  58.8368  58.8508  59.1305  59.2011  59.2158  59.2228  59.2540  59.3885  59.3928  59.4646  59.9250  60.3765  60.3673  60.3951  60.4117  60.4117  60.4028  60.3924  60.3382  60.3492  60.3329  60.3359  60.5341  61.6192  61.5362  60.4464  60.4770  60.1883  60.3851  60.1490  60.2674  60.1991  60.3662  60.1072  60.1989  60.0684  59.9884  60.0352  60.0030  60.0663  59.9922  60.0546  60.0080  59.9564  59.9691  59.6567  59.4634  59.4383  59.4323  59.4385  59.4399  59.3008  59.2642  59.2610  59.2014  59.1364  59.1626  59.2432  58.3491  58.0797  58.1789  58.1094  58.0913  57.6882  57.9317  57.6854  57.7149  57.6658  57.6650  57.6977  57.8177  57.9044  58.1375  58.1234  58.0638  58.0235  58.0633  58.8100  60.0029  58.2041  57.7721  57.6466  57.7518  57.8218  57.7158  57.4645  57.4451  57.4310  57.4745  57.4802  58.4456  69.5328  58.2239  56.2026  56.2081  56.3060  56.1837  54.9188  54.6504  54.5401  54.4110  54.2941  54.1905  54.0799  53.9437  53.8831  53.7106  53.7966  53.8074  53.8188  54.5126  55.9001  56.7801  57.3027  58.0479  58.6018  70.9865  58.3619  58.2696  58.2875  58.3235  58.4190  58.6467  58.6077  58.5650  58.5041  58.3593  58.0041  58.0470  58.0831  58.1812  58.1056  58.0405  58.0563  58.2089  58.4020  58.3221  57.1180  57.9722  58.1980  58.1883  58.2070  58.2159  58.3486  58.3535  58.3149  58.3655  58.4578  58.0628  58.3790  58.1808  58.3374  58.1653  58.3532  58.3392  58.4115  58.6034  58.6500  58.6397  58.5857  58.5920  59.1164  59.5354  59.6549  59.6449  59.8692  59.8993  60.2477  60.2312  60.2362  60.3331  60.3923  60.3876  60.2374  60.2485  60.2405  60.4560  61.6444  61.7895  61.7423  61.5600  61.5001  61.4455  61.4703
-9999.0000  -9999.0000  -9999.0000  -9999.0000  -9999.0000  -9999.0000  -9999.0000  -9999.0000  -9999.0000  -9999.0000  -9999.0000  -9999.0000  -9999.0000  -9999.0000  79.7520  77.4041  75.3673  73.8957  72.6585  70.7634  69.9670  69.9850  69.9487  70.3284  70.9855  72.5298  73.6028  74.5744  76.0552  77.7583  79.0850  80.8677  81.1144  81.1672  79.6319  78.2081  76.6376  74.4923  73.0717  71.8234  71.0653  69.8989  69.3825  68.8435  68.6071  67.6530  67.2312  66.5717  65.9790  65.5836  65.3969  65.0878  65.4477  65.5603  65.6318  65.2033  64.6079  63.8379  63.1312  62.1269  62.1283  61.6975  60.7715  60.7584  60.7573  60.7620  60.4043  59.6424  59.5857  59.5724  59.5691  59.6142  59.5503  59.5568  59.6135  59.6883  59.6384  59.6500  59.6553  59.6024  59.6119  59.6208  59.6203  59.6081  59.6243  59.7816  60.4744  60.4589  72.2846  70.9031  58.1871  57.6652  57.9185  58.4046  71.4940  71.1610  59.7151  59.1989  59.0241  59.0750  59.0602  59.0854  59.0948  59.0754  59.0596  59.0926  58.9675  58.8553  58.8249  58.8385  58.8277  58.8583  59.1172  59.1992  59.1849  59.2156  59.2671  59.3909  59.3753  59.3839  59.4058  59.5169  59.9885  60.3867  60.4885  60.4197  60.4021  60.4166  60.3370  60.3577  60.3402  60.3296  60.3633  60.9866  61.6629  60.9549  60.2405  60.2023  60.0684  60.0892  60.0842  60.0843  60.1294  60.1249  60.0444  59.9908  59.9921  59.9956  60.0016  60.0107  60.0014  59.9704  59.9994  59.9797  59.9490  59.9386  59.6626  59.4639  59.4573  59.4691  59.4300  59.4297  59.3286  59.2827  59.2432  59.1979  59.1234  59.1632  59.6760  58.0947  58.1389  58.1074  58.1049  58.0499  57.8431  57.7199  57.9833  57.6559  57.7101  57.7019  57.7433  57.8321  57.9649  58.0947  58.1575  58.1060  58.0370  58.0218  59.1749  59.8392  58.4183  57.8023  57.7080  57.7293  57.8274  57.7836  57.4711  57.4967  57.4765  57.4495  57.4545  58.4248  69.5034  58.1769  56.1373  56.3666  56.2925  56.1651  55.0603  54.9232  54.5973  54.3901  54.3369  54.1304  54.0573  54.2139  54.1641  54.2776  53.7834  53.7984  53.8293  54.3081  55.7156  56.8619  57.6756  58.1235  58.4303  71.4380  58.6189  58.3829  58.2903  58.2909  58.4755  58.6151  58.5959  58.5511  58.5107  58.3929  58.1071  58.0828  58.1324  58.1556  58.0871  58.0671  58.0475  58.1305  58.4203  58.4651  57.2270  57.8738  58.1733  58.1922  58.1734  58.2061  58.3460  58.4202  58.3387  58.3938  58.4558  58.1468  58.4182  58.3707  58.2198  58.2949  58.0156  58.2604  58.4426  58.6151  58.6788  58.6593  58.5792  58.5797  59.0274  59.5409  59.7793  59.7142  59.9078  59.9236  60.2366  60.2324  60.2692  60.3212  60.3809  60.2656  60.1757  60.3296  60.2194  60.2139  61.5757  61.6812  61.5151  61.4868  61.4122  61.4374  61.4247
-9999.0000  -9999.0000  -9999.0000  -9999.0000  -9999.0000  -9999.0000  -9999.0000  -9999.0000  -9999.0000  -9999.0000  -9999.0000  -9999.0000  -9999.0000  80.7093  79.5408  77.7647  76.0891  74.2248  73.0696  71.0976  69.9801  69.9594  69.9754  70.2686  71.9959  72.9136  73.8736  74.8587  76.1764  77.7732  78.4457  79.8901  81.0756  81.5840  81.3026  79.5365  77.6376  75.3578  74.0270  72.6637  71.4653  70.2812  69.4653  68.7925  68.0682  67.3493  67.0390  66.4150  66.1060  65.7756  65.4337  65.9035  66.1962  66.4873  66.3768  65.9559  65.0636  63.9930  63.2048  62.3649  62.0912  61.3469  60.7863  60.7684  60.7811  60.7031  59.9858  59.5898  59.5636  59.5758  59.5909  59.5545  59.5321  59.5575  59.5979  59.6458  59.6500  59.6613  59.6487  59.5976  59.6116  59.6311  59.6113  59.6239  59.6268  59.9519  60.4785  71.3981  72.0089  59.0338  57.6339  57.6948  58.2920  59.8277  72.4870  59.7813  59.5414  58.5946  59.0699  59.0883  59.0548  59.0928  59.1076  59.0942  59.1143  59.0947  59.0941  58.9230  58.8189  58.8118  58.8141  59.0228  59.2083  59.1863  59.2157  59.2372  59.3880  59.3805  59.3956  59.3993  59.4117  59.4288  59.5258  60.0553  60.6783  60.6083  60.4161  60.3571  60.3205  60.3310  60.3561  60.3565  60.3700  60.9680  61.8040  60.2574  60.2454  60.1349  60.0781  60.0904  60.0623  60.1020  60.0779  60.1319  60.1253  59.9759  59.9816  59.9783  59.9944  60.0209  59.9799  59.9895  59.9654  59.9467  59.9424  59.9473  59.6816  59.4604  59.4524  59.4134  59.4116  59.4105  59.2936  59.2728  59.2324  59.1772  59.1133  59.1216  59.2978  58.6945  58.1256  58.1444  58.0931  58.0941  57.7057  58.0354  57.9921  57.6785  57.6779  57.7034  57.7361  57.8383  57.9878  58.0996  58.1828  58.0887  57.9211  58.0062  58.8807  59.7536  58.5878  57.7652  57.7432  57.7878  57.9064  57.8005  57.5248  57.4931  57.4526  57.4576  57.4882  58.3071  69.2519  68.3593  56.0484  56.2390  56.1653  56.1843  55.3920  55.0898  54.5758  54.3668  54.2120  53.9357  54.2436  54.4811  54.1997  54.3733  53.8008  53.7648  53.8359  54.3195  55.7012  57.2305  57.6929  58.2448  57.9442  71.1258  58.8437  58.2161  58.2403  58.2970  58.4393  58.6289  58.5816  58.5568  58.5407  58.4601  58.1701  58.0710  58.1295  58.0811  58.1365  58.0101  58.0096  58.1054  58.4401  58.4807  57.3458  57.7951  58.1594  58.2095  58.1567  58.1715  58.3178  58.3136  58.3138  58.4231  58.4102  58.3165  58.3895  58.3975  58.4066  58.2465  58.2569  58.0733  58.4926  58.5710  58.6266  58.6411  58.5502  58.5755  58.9726  59.6970  59.8320  59.5648  59.8676  59.9857  60.2200  60.2172  60.2934  60.3191  60.3848  60.3298  60.1229  60.2469  60.2492  60.4706  61.6054  61.5219  61.4273  61.3793  61.3971  61.3570  61.5051
-9999.0000  -9999.0000  -9999.0000  -9999.0000  -9999.0000  -9999.0000  -9999.0000  -9999.0000  -9999.0000  -9999.0000  -9999.0000  -9999.0000  80.6919  79.6573  78.7416  77.4440  76.1392  74.6417  73.3611  71.3896  70.0134  69.9723  70.0900  71.2635  73.2187  74.0877  74.8549  75.4481  77.1401  77.8361  78.3337  81.3911  81.6299  81.4871  81.2703  80.3144  78.3310  76.7115  74.9506  73.4745  71.8452  70.5876  69.6007  69.3412  68.0085  67.5234  66.9469  66.4222  66.3529  66.6427  66.7318  66.9572  67.3117  67.4753  67.2766  66.6922  65.6968  64.0755  63.3452  62.1419  62.0181  60.7977  60.7803  60.8134  60.7912  60.6699  59.6355  59.5822  59.5621  59.5689  59.5693  59.5905  59.5328  59.5878  59.6098  59.6206  59.6380  59.6800  59.5901  59.6036  59.6158  59.5924  59.6225  59.6209  59.7400  60.2454  61.0426  72.5252  60.1584  58.0821  57.6559  57.9967  58.6247  72.0717  71.4873  59.7516  59.2745  58.5401  59.0832  59.0803  59.0749  59.0993  59.0919  59.0992  59.1051  59.0992  59.0724  59.0224  58.9405  58.8247  58.8927  59.2184  59.2100  59.2051  59.2203  59.3370  59.4154  59.3956  59.3979  59.4017  59.3916  59.4217  59.4166  59.4890  60.5263  60.9168  60.6690  60.3302  60.3159  60.3269  60.3327  60.3417  60.3811  60.7785  61.3954  60.2449  60.2226  60.1614  60.0989  60.1124  60.0961  60.0715  60.1173  60.1392  60.0758  59.9751  59.9769  59.9719  59.9954  60.0195  60.0015  59.9692  59.9530  59.9487  59.9477  59.9305  59.6520  59.4506  59.4546  59.4320  59.4124  59.4017  59.3542  59.2505  59.2216  59.1662  59.1184  59.1046  59.6300  58.1198  58.1487  58.1019  58.1444  58.0995  57.9846  58.0200  57.9832  57.6762  57.6891  57.6944  57.7484  57.8207  58.0432  58.1844  58.1699  58.0704  57.8521  57.9461  59.0058  59.6729  58.5642  57.7999  57.7639  57.8342  58.0050  57.8481  57.5358  57.5207  57.4645  57.4750  57.5122  58.1559  59.1869  68.8024  56.1079  56.2396  56.1972  56.1873  55.5867  55.0743  54.4213  54.2489  54.1074  54.0212  54.1104  54.1831  54.1807  54.3884  53.7269  53.7405  53.7538  54.2583  55.3480  57.2038  57.3914  58.0380  57.9329  70.7733  59.1358  58.1547  58.2085  58.2712  58.4225  58.5980  58.6030  58.5341  58.5266  58.4270  58.1124  58.0956  58.0797  58.1695  58.0748  57.9877  58.0407  58.0634  58.4906  58.5617  57.4399  57.7529  58.1846  58.2761  58.1868  58.1594  58.3053  58.3044  58.3077  58.4359  58.3850  58.3815  58.3985  58.4599  58.3884  58.4402  58.3033  58.2599  58.3604  58.6347  58.5477  58.5543  58.5486  58.5929  59.0106  59.8030  59.7289  59.5693  59.8199  60.0912  60.2058  60.1963  60.2783  60.3434  60.3771  60.3776  60.1301  60.2421  60.2695  60.6501  61.3426  61.3704  61.2583  61.3537  61.3594  61.3531  61.2805
-9999.0000  -9999.0000  -9999.0000  -9999.0000  -9999.0000  -9999.0000  -9999.0000  -9999.0000  -9999.0000  -9999.0000  -9999.0000  81.4373  80.0775  78.9119  77.8546  76.8076  75.4835  74.5882  73.0917  70.8585  70.0966  70.4166  71.1793  72.5123  74.4083  75.2211  75.9544  76.4519  77.3572  78.2563  79.2171  81.1052  81.4096  81.2987  80.6693  79.7384  78.4618  76.8972  75.4943  73.5701  72.2964  70.6942  69.6407  68.8096  67.6861  67.3351  67.3254  66.9281  67.2631  67.7076  68.3239  68.4753  68.6716  68.6223  68.7623  67.9624  66.5694  64.5922  62.9881  62.2558  61.3284  60.7768  60.7649  60.7893  60.7892  60.4097  59.5806  59.5584  59.5516  59.5521  59.5679  59.5479  59.5647  59.5956  59.6558  59.6267  59.6562  59.6476  59.5959  59.6025  59.5974  59.5920  59.6208  59.6242  59.8920  60.5992  72.2565  72.2559  58.7239  57.6773  57.7258  58.0964  59.9656  72.4958  60.0803  59.7425  58.9508  58.9875  59.0895  59.0829  59.0807  59.0869  59.0992  59.1014  59.0996  59.0487  59.0484  59.0793  59.0810  58.9404  59.2439  59.2345  59.2100  59.2100  59.3334  59.3913  59.4127  59.3974  59.4005  59.3692  59.3998  59.4164  59.4028  59.8620  60.1902  60.6628  61.0546  60.6677  60.3161  60.3250  60.3428  60.3385  60.4519  61.6755  60.3033  60.2281  60.2149  60.1651  60.1289  60.1142  60.1279  60.1113  60.1316  60.1400  60.1253  59.9716  59.9784  59.9858  60.0020  60.0291  59.9755  59.9503  59.9485  59.9416  59.9062  59.9319  59.6934  59.4517  59.4631  59.4297  59.4045  59.4178  59.3443  59.2361  59.2204  59.1847  59.1149  59.1078  59.1777  58.6469  58.1578  58.2676  58.1268  58.2768  57.8920  58.0420  57.7435  57.7062  57.6762  57.7138  57.7251  57.8351  58.0551  58.0680  58.1074  58.0991  57.8332  57.9040  59.0095  59.6095  58.6376  57.8564  57.7606  57.8520  57.8860  57.7599  57.4910  57.4032  57.4331  57.4557  57.4756  57.9647  59.2607  69.1802  56.2985  56.2263  56.2308  56.1902  55.6780  54.9891  54.4928  54.1493  54.0659  54.3155  54.2874  54.2369  54.1733  54.1020  53.8500  53.6265  53.6945  54.1383  55.6602  57.5621  57.2856  57.6146  57.8580  70.6084  59.4179  58.1233  58.1444  58.2535  58.3366  58.6028  58.6632  58.6045  58.5353  58.3597  58.1023  58.0847  58.1495  58.0857  58.0945  57.9595  58.0720  58.4284  58.3154  58.1482  57.6253  57.7561  58.1572  58.1874  58.1494  58.1099  58.3312  58.4025  58.4108  58.3873  58.3726  58.3611  58.4003  58.4241  58.4898  58.3157  58.3191  58.2449  58.9650  58.5997  58.7197  58.7437  58.5839  58.6768  59.3145  59.9623  59.6960  59.6871  59.8211  60.1455  60.1282  60.1889  60.3196  60.2808  60.3589  60.2086  60.1254  60.3409  60.2739  60.7128  61.3016  61.2694  61.3180  61.3667  61.4355  61.4326  61.2595
-9999.0000  -9999.0000  -9999.0000  -9999.0000  -9999.0000  -9999.0000  -9999.0000  -9999.0000  -9999.0000  -9999.0000  -9999.0000  81.2993  79.7105  78.5992  77.7125  76.4859  75.6294  73.9870  72.3259  71.7430  71.3736  71.7567  71.3899  73.6164  75.0814  76.1601  76.8106  77.5118  78.3284  79.3076  80.3386  80.9089  81.1710  81.2999  79.9130  78.6892  77.6746  76.6998  75.2625  73.6767  72.0923  70.6124  69.6344  68.1195  67.8118  67.6566  67.7416  68.1181  68.5563  69.1614  69.8366  70.1026  70.0909  70.3942  70.2252  70.2466  68.0797  64.5415  62.8288  61.8627  60.7891  60.7651  60.7839  60.8148  60.9215  60.0293  59.5738  59.5226  59.5095  59.5531  59.5627  59.5687  59.5676  59.6077  59.6427  59.6301  59.6371  59.6316  59.6075  59.5966  59.5959  59.6051  59.6345  59.6120  60.2691  61.0545  71.9634  60.6596  58.2139  57.6535  57.7662  58.8945  72.2483  71.0159  60.1825  59.7128  59.2160  59.0024  59.0832  59.0799  59.0989  59.0913  59.0975  59.1082  59.0575  59.0417  59.0679  59.0742  59.0695  59.0735  59.1491  59.2710  59.2100  59.2191  59.3584  59.3980  59.3942  59.3803  59.3641  59.3631  59.4073  59.4739  59.7860  60.0815  60.1316  60.1259  60.5886  61.1086  60.7702  60.3505  60.3500  60.4940  61.2384  61.8538  60.6465  60.2126  60.2144  60.1965  60.1514  60.1003  60.0948  60.1399  60.1385  60.1491  60.0608  59.9924  59.9952  59.9806  59.9968  60.0038  59.9381  59.9325  59.9449  59.9393  59.9371  59.9532  59.6567  59.4557  59.4636  59.4302  59.4046  59.4161  59.3550  59.2535  59.2442  59.1550  59.1111  59.1151  59.0978  58.7973  58.2385  58.0865  58.2695  58.2211  57.9387  57.6629  57.8344  57.6854  57.6661  57.7257  57.8097  57.8629  58.0454  58.0508  58.0455  58.0553  57.8881  58.0002  59.0078  59.6605  58.8503  57.7216  57.7745  57.7012  57.7461  57.6568  57.4097  57.5018  57.5273  57.4275  57.2297  57.6303  58.8553  69.7266  56.4787  56.2129  56.2273  56.1726  55.8049  55.2164  54.9352  53.9750  54.0654  54.2014  54.2631  54.2055  54.1720  54.1344  53.8560  53.5441  53.7482  54.0610  54.5794  57.6538  57.2446  57.3777  57.9011  70.2238  69.8047  58.0768  58.1160  58.1819  58.2394  58.5489  58.6374  58.5983  58.5247  58.2373  58.0868  58.1108  58.1007  58.0399  57.9523  57.9604  58.4735  57.9707  57.9581  58.1588  57.8667  57.4544  58.3924  58.3045  58.2341  58.2285  58.4191  58.3262  58.4275  58.5025  58.3730  58.2138  58.2940  58.3910  58.3882  58.4366  58.3528  58.5871  58.9431  58.9042  58.9907  58.3550  58.7887  58.9320  59.8590  60.2131  59.8094  59.7799  59.8792  60.0937  60.1764  60.2467  60.2450  60.2784  60.3898  60.4015  60.1854  60.2413  60.2823  60.7494  61.2124  61.1401  61.2939  61.3942  61.3941  61.5585  61.2984
-9999.0000  -9999.0000  -9999.0000  -9999.0000  -9999.0000  -9999.0000  -9999.0000  -9999.0000  -9999.0000  -9999.0000  82.9475  81.5636  80.8053  79.5120  78.5402  76.9322  75.8466  73.2048  71.9677  71.7942  71.7893  71.9735  72.4959  74.2886  75.5935  76.5145  77.2535  78.1147  79.0792  79.9717  80.5254  80.5913  80.5172  79.8292  78.7498  78.3248  76.8523  75.7465  74.5241  73.3627  71.8208  70.2357  69.1800  68.5847  68.5151  68.5151  68.9556  69.5418  69.9376  70.5032  71.1266  71.6079  71.7658  71.9116  72.1821  71.9462  70.9545  66.1438  63.4110  62.2223  61.4281  60.7733  60.7877  60.6385  60.2373  59.7063  59.6034  59.6027  59.5575  59.5675  59.5779  59.5564  59.5978  59.6598  59.6600  59.6600  59.6783  59.6318  59.6187  59.6300  59.6286  59.6300  59.6282  59.7017  60.5374  72.4203  71.2320  59.0195  57.8215  57.6542  58.1571  60.1632  72.4159  60.9754  60.0872  60.0272  59.1674  59.0465  59.1026  59.0889  59.0764  59.0898  59.0914  59.0426  59.0650  59.0700  59.0452  59.0327  59.1089  59.0856  59.0692  59.1235  59.2045  59.4429  59.4147  59.4207  59.4050  59.4264  59.4275  59.3989  59.3978  59.6459  60.0792  60.1249  60.1044  60.1014  60.1033  60.1146  60.5594  60.6618  60.3678  60.7859  61.6501  61.7806  60.5157  60.2097  60.3350  60.1338  60.0650  60.0453  60.0593  60.0733  60.1031  60.1087  60.1161  60.0101  60.0033  59.9927  60.0024  59.9830  59.9372  59.9298  59.9500  59.9487  59.9355  59.9485  59.6678  59.4902  59.4725  59.4389  59.3979  59.3798  59.3655  59.2575  59.2347  59.2207  59.1471  59.1273  59.5442  58.9410  58.1861  58.3482  58.2647  58.1889  57.9797  57.7218  58.0387  57.7399  57.7475  57.8247  57.8793  57.8051  57.7925  57.9803  57.9843  57.9121  57.8611  58.0435  59.0709  59.8151  59.2798  58.2610  57.7213  57.6318  57.5753  57.5416  57.5365  57.4995  57.4096  57.3593  57.3919  57.4585  58.4654  69.8726  56.9406  56.3078  56.3414  56.2913  55.9613  55.5425  55.0746  54.0745  54.0219  54.2676  54.2140  54.3502  54.3194  54.1644  53.8064  53.7407  53.7723  53.8623  53.8683  57.3801  57.2141  57.3235  57.8701  60.0274  70.1330  58.0909  58.0840  58.1031  58.2122  58.4225  58.5663  58.5752  58.4490  58.1907  58.1082  58.0849  58.0740  58.0400  57.9234  58.4250  57.9729  57.9460  58.0136  58.1881  57.4991  57.5102  58.0876  58.2726  58.1149  58.3514  58.4040  58.5079  58.5807  58.4821  58.3278  58.3762  58.4464  58.5586  58.6670  58.5668  58.5644  58.5904  58.7550  58.7572  58.4389  58.5527  58.7989  59.1226  60.0513  60.0554  59.8153  59.8662  59.7929  60.0036  60.0543  60.1182  60.2111  60.2790  60.3437  60.3213  60.0476  60.2135  60.2480  60.6845  61.0104  61.0349  61.2213  61.2687  61.3290  61.3385  61.2736
-9999.0000  -9999.0000  -9999.0000  -9999.0000  -9999.0000  -9999.0000  -9999.0000  -9999.0000  -9999.0000  84.4971  83.2051  82.8434  82.7635  81.2157  79.1553  77.2055  75.1356  72.0626  71.7950  71.7827  71.7750  72.2130  73.2822  74.6819  75.7929  76.5786  77.4673  78.5044  79.4814  80.1820  80.4978  80.4698  79.8236  78.6652  77.7034  76.7879  75.6775  74.6805  73.5211  72.3448  70.9852  69.8535  69.1167  69.2029  69.4462  69.8363  70.3340  70.8230  71.1217  71.6437  72.5500  73.2415  73.3381  73.3285  73.5293  73.0098  72.7072  68.9493  65.6489  62.2799  61.3166  60.7852  60.8142  60.4474  59.5909  59.5651  59.5939  59.5529  59.5847  59.5800  59.5801  59.5806  59.5216  59.5055  59.6577  59.6462  59.6436  59.6236  59.6100  59.6073  59.6225  59.6353  59.6265  59.9537  61.0751  72.3807  59.4592  58.0482  57.6997  58.2274  59.1987  71.1946  71.6126  59.9902  60.0104  59.9707  59.2903  59.0803  59.0917  59.0881  59.0888  59.0742  59.0593  59.0500  59.0664  59.1036  59.0538  59.1698  59.0974  59.0927  59.0399  59.0369  58.8193  58.7358  59.3413  59.4462  59.4197  59.4107  59.4084  59.4054  59.4985  59.7902  60.1328  60.1302  60.1137  60.1449  60.1097  60.1007  60.1165  60.6437  60.7722  61.1952  61.6015  61.1867  61.0348  60.9894  60.8621  60.5861  60.2091  60.1846  60.1657  60.1341  60.1273  60.0568  60.0622  59.9940  59.9802  60.0192  59.9852  59.9918  60.0163  59.9725  59.9886  59.9669  59.9546  59.9549  59.8450  59.4470  59.4646  59.4336  59.4176  59.4100  59.3537  59.2702  59.2473  59.2347  59.1392  59.1222  59.2601  59.3447  58.5355  58.3924  58.3385  58.4076  58.0392  58.4264  58.1671  57.7636  58.0369  57.8666  57.8246  57.8961  57.9561  57.8799  57.8350  57.7730  57.9114  57.9377  58.4440  59.8007  58.1167  57.5474  57.4463  57.4182  57.4481  57.4599  57.4092  57.4166  57.4338  57.4227  57.4464  57.4371  58.6368  69.7313  57.3854  56.3320  56.4156  56.3372  56.0348  55.4115  55.5404  54.1904  54.1159  54.4527  54.2564  54.6116  54.2847  53.9893  53.7256  53.6562  53.9177  53.8635  53.8312  56.8923  57.1424  57.2555  57.8219  59.7271  70.5210  58.0441  58.0323  58.0790  58.1416  58.2651  58.4151  58.1853  58.0332  57.9744  58.0619  57.9618  58.0222  57.9541  58.3893  58.0106  58.0037  58.0514  58.0200  57.9219  57.6575  57.3201  57.9849  58.1883  57.9918  58.4132  58.4144  58.4280  58.4970  58.5200  58.5253  58.3913  58.5776  58.6077  58.6043  58.6156  58.5492  58.4993  58.4207  58.5581  58.4963  58.5359  58.4477  58.2355  59.6696  59.8303  59.9529  59.8361  59.7871  60.1280  60.3148  60.2485  59.9974  60.0708  60.0500  60.2422  60.2080  60.4528  60.4105  60.6753  60.7753  60.8603  61.0391  60.6522  61.0630  61.0140  61.0019
-9999.0000  -9999.0000  -9999.0000  -9999.0000  -9999.0000  -9999.0000  -9999.0000  -9999.0000  83.5463  85.0423  84.7153  84.7776  83.5409  81.1176  78.8931  76.9320  74.3856  71.8161  71.7944  71.7814  71.7866  72.3765  73.7310  74.9450  75.8469  76.7165  77.8002  78.9983  79.7681  80.2151  80.1738  79.4154  78.6777  77.7115  76.6684  75.6616  74.6493  73.6160  72.5908  71.4258  70.1494  70.0207  69.8275  70.1243  70.6678  71.2314  71.6932  72.2381  72.4954  72.8924  73.9157  74.7499  74.9428  74.9665  74.3575  72.9791  72.1862  70.3948  66.8717  62.0476  61.3179  61.5116  61.0339  60.1170  59.6022  59.5930  59.6178  59.5939  59.6153  59.6193  59.6102  59.5982  59.6426  59.6431  59.6221  59.6202  59.6100  59.6085  59.5744  59.6014  59.6215  59.6227  59.5798  60.2192  71.7096  71.4990  58.5291  57.9505  57.6974  58.5874  60.7643  71.4393  60.6473  59.9479  59.6707  59.2998  59.4166  59.7139  59.2711  59.0981  59.1116  59.0373  59.0225  59.0353  59.0535  59.0569  59.0495  59.0825  59.0753  59.0593  59.0419  59.0354  59.0350  59.0453  59.2232  59.4200  59.4200  59.4136  59.3800  59.3900  59.9924  60.1300  60.1250  60.1095  60.1093  60.1265  60.1273  60.1162  60.1047  60.1107  61.6983  62.3797  61.7256  61.1511  61.1657  61.1569  61.1531  61.1625  60.7145  61.1645  60.8142  60.4933  60.5469  60.2834  60.2775  60.3163  59.9951  60.0014  60.1834  60.4354  60.6877  60.4515  60.3663  59.9859  59.8813  60.0125  59.9447  59.5845  59.8216  59.5176  59.5686  59.4402  59.3781  59.2960  59.2800  59.2107  59.1277  59.1225  59.0820  58.2051  58.1478  58.1409  58.0605  58.0204  58.1855  58.0956  58.0024  57.7316  57.8315  57.9160  57.8725  57.9968  57.9887  57.9395  57.9327  57.9698  57.8373  57.7736  58.3115  59.7695  57.6842  57.5274  57.4635  57.4162  57.4202  57.3720  57.3713  57.4247  57.4178  57.4689  57.4995  57.4520  58.4105  69.5067  57.7953  56.4697  56.4547  56.3707  56.0707  55.4851  55.5815  54.4974  54.0712  54.3186  54.4684  54.3125  54.1744  53.9887  53.6733  53.7408  53.8694  53.8530  53.9203  56.3253  57.0069  57.1405  57.6824  59.5163  70.8447  58.0618  57.9871  58.0752  58.0759  58.1123  57.8854  57.7777  57.8772  57.9031  57.8977  57.8317  58.0808  58.3704  57.9596  58.0330  58.0563  58.0136  57.9303  57.9263  57.7377  57.1908  57.9819  58.1538  58.2999  58.3693  58.4080  58.4109  58.4640  58.5129  58.4629  58.3854  58.4596  58.4470  58.4666  58.4856  58.4843  58.5072  58.5594  58.5066  58.5331  58.5078  58.4859  58.5497  58.6777  59.6965  59.5600  59.9835  59.8299  59.9886  60.2859  60.2117  60.1294  60.2552  60.7075  60.5551  60.6536  60.5622  60.4890  60.6551  60.7441  60.5447  60.5384  60.5816  60.5868  60.5762  60.6354
-9999.0000  -9999.0000  -9999.0000  -9999.0000  -9999.0000  -9999.0000  -9999.0000  82.1320  83.4971  84.9021  85.4522  84.1238  82.3704  80.0885  78.3852  76.5632  73.9599  71.7625  71.7930  71.7988  71.8991  73.0202  74.5240  75.4615  76.2043  76.9761  78.1795  79.1676  80.1004  80.3455  79.7585  78.4785  77.6089  76.5934  75.4461  74.5404  73.5754  72.5066  71.2249  70.1477  69.7089  69.7907  70.2599  71.4413  72.2254  72.8598  73.3692  73.7159  73.8660  74.1964  75.1446  75.9618  76.1686  76.0420  74.0610  71.7445  69.4601  66.5788  63.9105  61.7106  61.0440  60.9834  60.7394  59.6048  59.6050  59.6479  59.6345  59.6290  59.6173  59.6071  59.5959  59.6225  59.6733  59.6100  59.6212  59.5921  59.5968  59.5892  59.7110  59.9048  59.6216  59.6944  59.6216  60.8390  72.3001  59.3458  58.3495  57.8138  58.0145  59.5788  72.3110  71.4012  60.0656  59.9172  58.8388  59.0599  59.2316  59.2547  59.3870  59.3727  59.2856  59.0562  59.0384  59.0460  59.0374  59.0419  59.0558  59.0707  59.0863  59.0456  59.0283  59.0436  59.0309  59.0494  59.3416  59.4029  59.4188  59.4083  59.3877  59.6729  60.1007  60.1138  60.1270  60.1161  60.1091  60.1083  60.1325  60.1238  60.1189  60.7469  61.6169  61.6143  61.7544  61.6900  61.5701  61.1516  61.1483  61.1592  61.1708  61.1765  61.1780  61.0290  61.2844  61.5087  61.5191  61.0341  60.6352  60.8222  60.7850  61.0818  61.2384  61.0903  60.9599  60.6150  60.7041  60.6091  60.4124  60.5194  60.1970  59.7836  60.1196  59.9678  59.9462  59.3732  59.7814  59.5110  59.1512  59.1276  59.3476  58.4411  58.1228  58.0547  58.0283  58.0628  58.0905  58.0511  58.1507  57.8556  57.7819  57.7281  57.7825  57.9287  57.9156  57.9231  58.0120  57.9773  57.8698  57.7567  58.0881  59.9966  57.7910  57.5628  57.4820  57.4015  57.3772  57.3894  57.4258  57.3974  57.4248  57.4264  57.4778  57.4525  58.2975  69.6691  58.4372  56.5141  56.4746  56.4608  56.2235  55.6173  55.7655  54.4709  54.2012  54.2890  54.4344  54.2117  54.2574  53.6917  53.8927  54.0436  53.6721  53.8958  53.9243  55.7785  56.7721  57.0130  57.5054  59.2463  71.2564  58.0219  58.0041  58.0239  58.0494  58.0457  57.8733  57.8363  57.4118  56.7911  57.2915  57.7954  58.2499  58.0785  58.0984  58.0095  57.9928  57.9018  57.9290  57.9257  57.8251  57.1968  57.9234  58.1464  58.1808  58.3540  58.3891  58.3394  58.4779  58.5077  58.4466  58.4074  58.4477  58.4169  58.4698  58.4659  58.5466  58.6829  58.5333  58.5483  58.5564  58.5133  58.5298  58.6329  58.5994  58.7157  59.2917  59.5333  60.2883  60.0972  60.2406  60.2971  61.5415  61.4180  60.4903  60.5125  60.5525  60.4785  60.5862  60.5115  60.4724  60.5813  60.5909  60.6901  60.6937  60.7246  60.6201
-9999.0000  -9999.0000  -9999.0000  -9999.0000  -9999.0000  -9999.0000  81.1283  82.2171  83.4161  84.9012  84.6966  82.9687  80.9325  79.4102  77.9848  76.5750  75.2064  73.0460  72.6523  72.8054  73.1452  74.5817  75.6461  76.3754  77.0655  77.8268  78.7496  80.0265  80.3262  80.0674  78.4822  77.2519  76.1104  75.0437  74.0495  73.4609  71.5608  70.9456  70.3983  69.9845  69.7619  69.7701  71.2177  72.6507  73.8748  74.5688  75.1908  75.2391  75.3507  75.6584  76.3470  76.9074  76.5958  74.9339  72.9403  69.3594  66.2164  63.5291  61.9864  61.0737  61.0388  60.5037  59.7076  59.5866  59.6322  59.6550  59.6384  59.6156  59.6130  59.6054  59.6003  59.6126  59.7912  59.6070  59.5817  59.5887  59.5913  59.6089  59.6722  59.6354  59.6297  59.8321  59.8956  72.2551  71.3399  58.9520  58.0094  57.7213  58.3780  60.6440  72.3217  60.2907  59.8998  59.7360  58.7437  59.2737  59.2545  59.2459  59.2971  59.4099  59.6436  59.3211  59.0727  59.0247  59.0581  59.1544  59.0763  59.0789  59.0425  59.0453  59.0486  59.0447  59.0263  59.2856  59.3301  59.3868  59.3815  59.6345  59.8144  60.1181  60.0904  60.1085  60.1258  60.0979  60.1090  60.1186  60.1147  60.1330  60.8127  61.5842  61.4272  61.4247  61.4486  62.0489  62.4882  61.7460  61.1587  61.1718  61.1822  61.1711  61.1623  61.4880  62.3142  62.4089  62.2719  61.6674  61.1079  61.2060  61.2306  61.2612  61.2595  61.2454  61.2146  61.1422  61.2464  61.2059  60.9773  61.1767  60.7471  61.0190  60.7600  60.7578  60.6711  60.8213  60.5768  59.8248  59.8028  59.6497  59.3456  58.7316  58.0762  58.2030  58.0668  58.0736  58.0262  58.1952  58.0243  57.7443  57.6053  57.7723  57.7542  57.8277  57.8989  57.9479  57.9849  57.9814  57.7597  57.6826  57.8055  59.8674  58.0148  57.5435  57.4811  57.4239  57.4037  57.4462  57.3783  57.3571  57.3814  57.3827  57.4461  57.4509  58.2011  69.7606  58.8834  56.5510  56.4934  56.4269  56.2737  55.8702  55.7884  54.4359  54.0358  54.5600  54.5754  54.3491  54.0327  53.8871  54.0193  53.7787  53.8834  53.9196  54.0102  55.3160  56.3841  56.9295  57.0907  58.1484  71.6099  58.2115  57.9743  57.9923  57.9741  57.9537  58.0328  57.8603  57.9401  58.1311  58.0801  58.1914  58.1766  58.2364  58.1223  58.0054  57.9015  57.9047  57.9522  57.9753  57.8805  57.4498  57.8466  58.0813  58.1372  58.2859  58.3395  58.3700  58.5411  58.5856  58.4012  58.4003  58.4063  58.4255  58.4444  58.4742  58.5925  58.6434  58.3964  58.5769  58.5993  58.4989  58.5298  58.5829  58.6243  58.5424  58.7923  58.9400  59.7841  60.2221  60.3159  60.6664  61.7170  60.7724  60.8306  60.6448  60.5960  60.4555  60.4433  60.3684  60.3769  60.5094  60.5444  60.6811  60.8055  60.7227  60.5979
-9999.0000  -9999.0000  -9999.0000  -9999.0000  -9999.0000  79.8354  81.1437  82.1802  83.6492  84.7322  83.6166  82.3787  80.3213  79.1316  77.5809  76.4064  75.5559  75.0888  73.8090  74.8288  75.6614  76.2503  76.8756  77.6541  78.3178  79.0866  80.3353  79.3385  79.4787  78.3020  76.8884  75.9980  74.9016  73.7782  73.1637  70.9318  70.4715  70.3976  70.3734  70.3068  70.0388  70.6016  72.3392  73.7033  75.1184  76.1594  76.5425  76.9381  77.0539  77.2522  77.4829  76.8855  75.5106  74.0963  70.8391  66.8565  63.8241  61.9992  61.3901  61.0731  60.9630  59.9468  59.5847  59.6234  59.6349  59.6230  59.5967  59.6246  59.6181  59.6226  59.6038  59.6364  59.6004  59.6061  59.5980  59.5987  59.6097  59.6116  59.6052  59.6300  59.6446  59.6439  60.8200  72.3331  59.6991  58.6527  57.7588  57.6980  59.3288  72.3758  71.3337  59.9896  59.7844  59.4301  59.2265  59.2690  59.2550  59.2909  59.2715  59.3078  59.6137  59.6871  59.2957  59.0848  59.2098  59.0883  59.0529  59.0663  59.0337  59.0513  59.0517  59.0424  59.1339  59.3585  59.3293  59.3460  59.7395  59.9311  60.1086  60.1004  60.0969  60.1117  60.0800  60.1067  60.1039  60.1107  60.1163  60.1084  61.5006  61.4773  61.4426  61.4544  61.4083  62.0104  62.5141  62.6539  61.8617  61.2011  61.1970  61.1917  61.3371  62.4128  62.3890  62.3936  62.4166  62.2243  61.6286  61.9885  61.6833  61.4208  61.7058  61.4984  61.6787  61.6347  61.8332  61.4928  61.6414  61.4035  61.3669  61.3477  61.2143  61.1703  61.0800  60.9881  60.8648  60.6674  60.6626  60.4618  60.0797  59.8073  59.1062  58.6205  58.3351  58.0860  58.1822  58.0233  58.2805  57.8246  57.7122  57.6446  57.7502  57.8691  57.9238  57.9450  57.9713  57.9549  57.7088  57.6449  57.7743  59.6369  58.2319  57.5097  57.4736  57.4198  57.4940  57.4624  57.4188  57.4417  57.4489  57.4844  57.4182  57.4748  58.2006  69.5142  59.1718  56.4637  56.4580  56.4524  56.3715  56.1546  55.6310  54.5612  54.2318  54.5777  54.0532  53.8681  53.9874  54.0165  53.8069  53.8874  53.8966  53.9954  54.0514  54.9726  56.8692  56.7835  57.2215  58.5891  71.3633  58.5508  57.9541  57.9102  57.8717  58.1529  58.0821  57.9591  58.2260  58.1599  58.1985  58.1728  58.0502  58.1411  58.0929  58.0303  57.8528  57.9019  57.9816  57.9335  57.8818  57.5377  57.8917  58.0376  58.0953  58.3085  58.4074  58.4448  58.5744  58.5920  58.4451  58.3830  58.4499  58.4049  58.4122  58.5270  58.5607  58.5865  58.4541  58.6631  58.6371  58.5157  58.5320  58.6153  58.6599  58.6056  58.5123  58.7004  58.5031  60.0515  60.1571  60.3552  61.2566  61.4907  60.7100  60.5603  60.5104  60.4405  60.3284  60.2668  60.3428  60.4238  60.4856  60.7312  60.8359  60.7976  60.7268
